0,0,0,0,0,0,0,0,0,0,0,0,1.307,1.306,1.307,1.307,1.308,1.309,1.312,1.313,1.317,1.32,1.324,1.325,1.331,1.333,1.335,1.336,1.339,1.34,1.342,1.342,1.342,1.343,1.343,1.344,1.344,1.347,1.347,1.348,1.35,1.351,1.354,1.355,1.355,1.357,1.36,1.36,1.361,1.364,1.364,1.365,1.368,1.368,1.37,1.374,1.375,1.378,1.38,1.38,1.383,1.383,1.384,1.384,0,0,0,0,2.194,2.198,2.198,2.205,2.205,2.209,2.213,2.216,2.22,2.224,2.228,2.239,2.247,2.251,2.262,2.274,2.27,2.282,2.286,2.29,2.29,2.298,2.31,2.314,2.318,2.326,2.326,2.331,2.335,2.335,2.335,2.339,2.339,2.339,2.343,2.343,2.343,2.339,2.339,2.339,2.339,2.339,2.339,2.339,2.339,2.339,2.339,2.343,2.343,2.343,2.343,2.343,2.343,2.343,2.343,2.347,2.351,2.351,2.356,2.356,2.356,2.36,2.364,2.364,2.368,2.368,2.373,2.377,2.381,2.394,2.407,2.416,2.425,2.439,2.448,2.457,2.462,2.471,2.476,2.476,2.476,2.48,2.485,2.485,2.485,2.49,2.494,2.494,2.499,2.499,2.504,2.509,2.514,2.518,2.523,2.528,2.538,2.538,2.543,2.558,2.573,2.593,2.609,2.624,2.635,2.645,2.656,2.661,2.678,2.694,2.728,2.762,2.786,2.798,2.81,2.816,2.822,2.822,2.822,2.822,2.816,2.816,2.804,2.786,2.751,2.722,2.689,2.667,2.656,2.64,2.629,2.614,2.603,2.593,2.603,2.609,2.609,2.614,2.614,2.614,2.619,2.619,2.619,2.619,2.619,2.624,2.624,2.624,2.624,2.629,2.629,2.629,2.635,2.635,2.635,2.635,2.635,2.635,2.629,2.629,2.629,2.624,2.619,2.614,2.614,2.609,2.609,2.609,2.609,2.614,2.614,2.619,2.624,2.624,2.629,2.635,2.635,2.635,2.635,2.64,2.64,2.64,2.64,2.64,2.64,2.64,2.635,2.635,2.635,2.635,2.635,2.635,2.635,2.64,2.64,2.645,2.651,2.656,2.667,2.672,2.683,2.694,2.705,2.722,2.728,2.745,2.751,2.762,2.762,2.768,2.768,2.78,2.786,2.786,2.792,2.798,2.81,2.816,2.816,2.822,2.822,2.828,2.834,2.859,2.903,2.962,0,3.051,3.102,3.224,3.272,3.297,3.322,3.356,3.408,3.444,3.49,3.499,3.518,3.537,3.546,3.546,3.556,3.556,0,0,0,0,0,0,0,0,0,0,0,0,0,0,0,0,0,0,0,0,0,0,0,0,0,0,0,2.421,2.421,2.416,2.416,2.403,2.39,2.381,0,0,2.356,2.343,2.335,0,2.322,2.322,2.322,2.318,2.322,2.322,2.326,2.331,2.331,2.326,2.322,2.318,2.314,2.31,2.302,2.29,2.29,2.286,2.282,2.282,2.274,2.27,2.262,2.262,2.258,2.258,2.258,2.251,2.251,2.251,2.251,2.247,2.251,2.251,2.262,2.262,2.274,2.286,2.29,2.302,2.314,2.318,2.322,2.322,2.326,2.326,2.326,2.326,2.331,2.331,2.331,2.331,2.331,2.318,2.29,2.258,2.228,2.213,2.194,2.162,2.13,2.113,2.106,2.103,2.099,2.099,2.099,2.099,2.096,2.099,2.099,2.099,2.096,2.099,2.099,2.103,2.109,2.113,2.116,2.123,2.13,2.14,2.144,2.151,2.154,2.151,2.144,2.133,2.127,2.12,2.113,2.106,2.103,2.096,2.083,2.07,2.057,2.037,2.025,2.019,2.009,2.003,1.994,1.985,1.97,1.955,1.932,1.921,1.913,1.907,1.907,1.907,1.907,1.907,1.907,1.91,1.913,1.913,1.915,1.915,1.913,0,0,0,0,2.588,2.588,2.578,2.578,2.573,2.578,2.573,2.578,2.573,2.578,0,0,0,0,0,0,0,0,0,0,0,0,0,0,0,2.49,2.49,2.485,2.485,2.485,2.485,2.485,2.485,2.485,2.485,2.48,2.48,2.476,2.471,2.462,2.452,2.448,2.434,2.421,2.421,2.416,2.416,2.416,2.416,2.416,2.416,2.416,2.416,2.421,2.421,2.421,2.421,2.421,2.425,2.425,2.425,2.434,2.434,2.434,2.439,2.448,2.448,2.452,2.452,2.452,2.452,2.452,2.452,2.448,2.448,2.439,2.425,2.416,2.394,2.381,2.373,2.36,2.351,2.343,2.335,2.326,2.322,2.318,2.31,2.302,0,0,0,0,0,0,0,0,0,0,0
0,0,0,0,0,0,0,0,0,0,0,1.308,1.308,1.308,1.309,1.309,1.311,1.312,1.313,1.316,1.32,1.324,1.325,1.329,1.331,1.333,1.336,1.337,1.339,1.34,1.342,1.342,1.342,1.343,1.344,1.344,1.344,1.347,1.347,1.348,1.35,1.351,1.354,1.355,1.357,1.357,1.36,1.361,1.361,1.364,1.364,1.365,1.368,1.37,1.371,1.374,1.375,1.378,1.381,1.381,1.383,1.384,1.386,1.386,0,0,2.169,2.176,2.18,2.187,2.19,2.198,2.201,2.209,2.209,2.213,2.216,2.224,2.228,2.239,2.247,2.258,2.262,2.27,2.274,2.282,2.286,2.29,2.29,2.302,2.31,2.318,2.322,2.322,2.331,2.335,2.335,2.335,2.339,2.339,2.339,2.339,2.339,2.343,2.343,2.339,2.339,2.339,2.339,2.339,2.339,2.339,2.339,2.339,2.339,2.339,2.343,2.343,2.343,2.339,2.339,2.343,2.343,2.343,2.343,2.347,2.351,2.356,2.356,2.36,2.36,2.364,2.368,2.373,2.377,2.381,2.39,2.403,2.416,2.425,2.434,2.448,2.452,2.457,2.466,2.471,2.476,2.476,2.48,2.48,2.485,2.485,2.49,2.49,2.494,2.494,2.499,2.499,2.504,2.509,2.514,2.518,2.523,2.528,2.538,2.543,2.553,2.568,2.578,2.593,2.609,2.629,2.635,2.645,2.656,2.661,2.678,2.689,2.722,2.751,2.768,2.792,2.798,2.804,2.81,2.81,2.81,2.804,2.798,2.792,2.78,2.762,2.728,2.694,2.672,2.661,2.645,2.64,2.624,2.614,2.603,2.603,2.603,2.609,2.609,2.614,2.614,2.619,2.619,2.619,2.619,2.619,2.624,2.624,2.624,2.624,2.624,2.624,2.629,2.629,2.629,2.629,2.629,2.629,2.629,2.629,2.629,2.624,2.624,2.619,2.619,2.614,2.614,2.609,2.603,2.609,2.609,2.609,2.609,2.614,2.614,2.619,2.619,2.624,2.629,2.629,2.635,2.635,2.635,2.635,2.635,2.635,2.64,2.635,2.635,2.635,2.635,2.635,2.635,2.635,2.635,2.64,2.64,2.645,2.651,2.656,2.667,2.672,2.683,2.689,2.694,2.705,2.722,2.728,2.728,2.739,2.745,2.745,2.751,2.762,2.762,2.768,2.78,2.786,2.798,2.804,2.81,2.816,2.816,2.822,2.834,2.859,2.903,2.962,3.016,3.051,3.117,3.224,3.28,3.297,3.33,3.382,3.426,3.462,3.49,3.508,3.527,3.537,3.546,3.546,3.546,3.546,0,0,0,0,0,0,0,0,0,0,0,0,0,0,0,0,0,0,0,0,0,0,0,0,0,0,0,0,2.407,2.407,2.403,0,0,0,0,0,2.356,2.343,2.335,0,2.322,2.326,2.322,2.322,2.318,2.322,2.326,2.331,2.331,2.326,2.322,2.318,2.314,2.31,2.298,2.29,2.286,2.282,2.282,2.282,2.274,2.27,2.27,2.27,2.262,2.262,2.262,2.258,2.251,2.251,2.251,2.247,2.247,2.251,2.258,2.262,2.274,2.286,2.29,2.302,2.314,2.314,2.322,2.322,2.322,2.326,2.326,2.326,2.326,2.326,2.326,2.326,2.326,2.318,2.29,2.251,2.228,2.213,2.198,2.165,2.13,2.113,2.106,2.103,2.103,2.099,2.099,2.099,2.099,2.099,2.099,2.099,2.099,2.099,2.099,2.103,2.106,2.109,2.113,2.12,2.123,2.13,2.13,2.133,2.14,2.133,2.13,2.123,2.12,2.113,2.109,2.103,2.096,2.089,2.079,2.06,2.047,2.034,2.022,2.012,2.009,2,1.994,1.982,1.967,1.947,1.927,1.915,1.91,1.904,1.904,1.902,1.904,1.904,1.904,1.907,1.907,1.907,1.907,1.91,1.91,0,0,0,0,0,2.578,2.573,2.573,2.573,2.568,2.568,0,0,0,0,0,0,0,0,0,0,0,0,0,0,0,0,0,0,0,2.485,2.48,2.48,2.48,2.48,2.48,2.48,2.48,2.48,2.48,2.476,2.471,2.466,2.457,2.448,2.434,2.425,2.416,2.407,2.407,2.407,2.407,2.407,2.407,2.407,2.407,2.407,2.416,2.416,2.416,2.416,2.421,2.421,2.421,2.425,2.425,2.434,2.434,2.434,2.439,2.439,2.448,2.448,2.448,2.448,2.448,2.439,2.439,2.439,2.434,2.421,2.403,2.39,2.377,2.368,2.356,2.351,2.339,2.335,2.326,2.322,2.318,2.31,0,0,0,0,0,0,0,0,0,0,0,0
0,0,0,0,0,0,0,0,0,0,0,0,1.311,1.311,1.311,1.312,1.313,1.313,1.317,1.32,1.324,1.325,1.329,1.331,1.335,1.336,1.337,1.339,1.34,1.342,1.342,1.343,1.343,1.343,1.344,1.344,1.344,1.346,1.347,1.348,1.35,1.351,1.354,1.355,1.357,1.357,1.36,1.361,1.364,1.364,1.365,1.365,1.368,1.37,1.371,1.375,1.378,1.38,1.381,1.383,1.383,1.384,1.386,0,0,0,2.154,2.162,2.165,2.169,2.18,2.19,2.194,2.201,2.209,2.213,2.216,2.224,2.228,2.235,2.247,2.251,2.262,2.27,2.274,2.282,2.286,2.286,2.29,2.298,2.31,2.314,2.318,2.322,2.326,2.326,2.331,2.335,2.335,2.335,2.339,2.339,2.339,2.339,2.339,2.339,2.339,2.335,2.335,2.335,2.339,2.339,2.339,2.339,2.339,2.339,2.339,2.339,2.339,2.339,2.339,2.339,2.339,2.343,2.343,2.343,2.351,2.351,2.356,2.356,2.36,2.36,2.364,2.373,2.377,2.381,2.394,2.403,2.416,2.421,2.434,2.448,2.452,2.462,2.466,2.471,2.476,2.476,2.48,2.48,2.485,2.485,2.485,2.49,2.49,2.494,2.499,2.499,2.504,2.509,2.514,2.518,2.523,2.528,2.538,2.543,2.553,2.568,2.578,2.603,2.609,2.624,2.635,2.645,2.656,2.661,2.672,2.689,2.711,2.745,2.762,2.78,2.78,2.786,2.792,2.792,2.786,2.78,2.768,2.762,2.745,2.728,2.705,2.678,2.661,2.656,2.645,2.635,2.624,2.609,2.603,2.593,2.603,2.603,2.609,2.614,2.614,2.619,2.619,2.619,2.624,2.624,2.624,2.624,2.624,2.619,2.619,2.624,2.624,2.624,2.624,2.624,2.624,2.624,2.624,2.624,2.624,2.619,2.619,2.614,2.614,2.609,2.609,2.609,2.603,2.603,2.603,2.593,2.603,2.603,2.609,2.614,2.614,2.619,2.624,2.624,2.629,2.629,2.635,2.635,2.635,2.635,2.635,2.635,2.635,2.635,2.635,2.629,2.629,2.629,2.635,2.635,2.64,2.64,2.651,2.656,2.661,2.667,2.678,2.683,2.689,2.694,2.705,2.705,2.711,2.722,2.722,2.728,2.739,2.739,2.745,2.751,2.762,2.768,2.786,2.792,2.804,2.81,2.816,2.822,2.828,2.852,2.903,2.962,3.009,3.051,3.117,3.232,3.28,3.297,3.339,3.382,3.435,3.471,3.499,3.518,3.527,3.537,3.546,3.546,3.546,3.546,0,0,0,0,0,0,0,0,0,0,0,0,0,0,0,0,0,0,0,0,0,0,0,0,0,0,0,0,0,0,0,0,0,0,0,0,0,2.339,2.326,0,2.326,2.326,2.326,2.322,2.322,2.322,2.326,2.331,2.331,2.326,2.322,2.318,2.31,2.302,2.29,2.29,2.286,2.282,2.282,2.282,2.274,2.27,2.27,2.27,2.27,2.27,2.262,2.262,2.258,2.251,2.251,2.247,2.247,2.251,2.258,2.262,2.274,2.282,2.29,2.302,2.31,2.314,2.318,2.322,2.322,2.326,2.326,2.326,2.326,2.326,2.326,2.326,2.322,2.314,2.286,2.247,2.228,2.213,2.194,2.165,2.133,2.116,2.106,2.103,2.103,2.103,2.099,2.099,2.099,2.099,2.099,2.099,2.099,2.103,2.103,2.106,2.109,2.109,2.113,2.116,2.123,2.127,2.13,2.133,2.133,2.133,2.13,2.123,2.116,2.109,2.106,2.099,2.089,2.079,2.066,2.047,2.034,2.025,2.019,2.012,2.009,2,1.994,1.982,1.961,1.941,1.924,1.915,1.907,1.904,1.902,1.902,1.902,1.902,1.902,1.904,1.904,1.904,1.907,1.907,1.904,1.904,0,0,0,0,0,2.568,2.568,0,0,0,0,0,0,0,0,0,0,0,0,0,0,0,0,0,0,0,0,0,0,2.48,2.476,2.476,2.476,2.476,2.476,2.48,2.48,2.48,2.476,2.476,2.466,2.457,2.452,2.439,2.425,2.416,2.403,2.403,2.394,2.394,2.394,2.403,2.403,2.394,2.394,2.403,2.403,2.403,2.407,2.407,2.407,2.416,2.416,2.421,2.421,2.421,2.425,2.425,2.434,2.434,2.434,2.434,2.434,2.434,2.434,2.425,2.425,2.425,2.421,2.407,2.394,2.377,2.368,2.36,2.351,2.343,2.339,2.331,2.322,2.318,2.314,2.302,2.29,0,0,0,0,0,0,0,0,0,0,0
0,0,0,0,0,0,0,0,0,0,0,0,0,0,1.316,1.316,1.317,1.317,1.324,1.325,1.329,1.331,1.333,1.336,1.337,1.339,1.34,1.342,1.342,1.342,1.342,1.343,1.343,1.343,1.344,1.344,1.344,1.347,1.347,1.348,1.35,1.351,1.354,1.355,1.357,1.36,1.361,1.364,1.364,1.365,1.365,1.368,1.368,1.37,1.374,1.375,1.378,1.38,1.383,1.383,1.384,1.386,1.387,0,0,2.133,2.14,2.144,2.151,2.154,2.169,2.176,2.187,2.194,2.205,2.209,2.216,2.22,2.228,2.231,2.239,2.247,2.251,2.258,2.262,2.27,2.274,2.282,2.286,2.29,2.298,2.31,2.314,2.314,2.322,2.322,2.322,2.326,2.331,2.331,2.335,2.335,2.335,2.335,2.335,2.335,2.335,2.335,2.335,2.335,2.335,2.335,2.335,2.335,2.339,2.339,2.339,2.339,2.339,2.339,2.339,2.339,2.339,2.339,2.343,2.343,2.347,2.351,2.351,2.356,2.356,2.36,2.364,2.368,2.377,2.381,2.39,2.403,2.416,2.425,2.434,2.448,2.452,2.462,2.466,2.471,2.471,2.476,2.48,2.48,2.485,2.485,2.485,2.485,2.49,2.494,2.494,2.499,2.499,2.504,2.509,2.518,2.523,2.528,2.538,2.543,2.553,2.568,2.578,2.593,2.609,2.624,2.635,2.645,2.656,2.661,2.672,2.683,2.705,2.728,2.745,2.745,2.751,2.762,2.762,2.762,2.751,2.745,2.739,2.728,2.711,2.694,2.678,2.661,2.656,2.645,2.64,2.629,2.619,2.609,2.593,2.593,2.603,2.603,2.603,2.609,2.609,2.614,2.619,2.619,2.619,2.619,2.624,2.624,2.624,2.619,2.619,2.619,2.619,2.619,2.619,2.614,2.614,2.614,2.614,2.614,2.614,2.614,2.609,2.609,2.609,2.603,2.603,2.603,2.593,2.593,2.593,2.593,2.593,2.593,2.603,2.609,2.609,2.614,2.619,2.619,2.624,2.624,2.629,2.629,2.635,2.635,2.635,2.635,2.635,2.635,2.629,2.629,2.629,2.629,2.629,2.635,2.64,2.645,2.651,2.656,2.661,2.667,2.672,2.678,2.678,2.683,2.683,2.694,2.694,2.694,2.705,2.711,2.711,2.722,2.728,2.739,2.745,2.751,2.768,2.78,2.786,2.798,2.804,2.816,2.828,2.852,2.903,2.948,3.009,3.051,3.117,3.232,3.28,3.305,3.347,3.408,3.444,3.471,3.499,3.518,3.527,3.546,3.546,3.546,3.537,0,0,0,0,0,0,0,0,0,0,0,0,0,0,0,0,0,0,0,0,0,0,0,0,0,0,0,0,0,0,0,0,0,0,0,0,0,0,2.335,2.331,0,2.326,2.331,2.331,2.326,2.326,2.326,2.331,2.331,2.331,2.326,2.322,2.314,2.31,2.302,2.29,2.29,2.282,2.282,2.282,2.282,2.274,2.274,2.274,2.274,2.27,2.27,2.27,2.262,2.258,2.258,2.251,2.247,2.247,2.251,2.251,2.262,2.27,2.282,2.29,2.302,2.31,2.314,2.318,2.322,2.326,2.326,2.326,2.326,2.326,2.326,2.326,2.322,2.322,2.31,2.282,2.247,2.228,2.213,2.194,2.165,2.133,2.116,2.109,2.103,2.103,2.103,2.103,2.099,2.103,2.099,2.103,2.103,2.103,2.103,2.106,2.109,2.109,2.113,2.113,2.12,2.123,2.127,2.127,2.13,2.133,2.133,2.127,2.12,2.113,2.103,2.096,2.089,2.07,2.057,2.044,2.028,2.022,2.015,2.012,2.009,2.006,2,1.991,1.979,1.958,1.941,1.924,1.913,1.907,1.902,1.899,1.899,1.899,1.899,1.902,1.902,1.902,1.904,1.904,1.902,1.902,1.902,1.902,1.902,1.907,0,0,0,0,0,0,0,0,0,0,0,0,0,0,0,0,0,1.82,0,1.822,1.827,1.827,1.83,0,0,0,0,2.476,2.476,2.476,2.476,2.476,2.476,2.476,2.476,2.466,2.466,2.457,2.448,2.434,2.421,2.416,2.403,2.394,2.39,2.39,2.39,2.39,2.39,2.39,2.39,2.39,2.39,2.39,2.394,2.394,2.394,2.394,2.403,2.403,2.407,2.407,2.407,2.416,2.416,2.416,2.421,2.421,2.421,2.421,2.421,2.416,2.416,2.407,2.407,2.403,2.394,2.377,2.368,2.36,2.356,2.351,2.343,2.335,2.331,2.322,2.318,2.314,2.302,2.298,2.29,2.282,0,0,0,0,0,0,0,0,0
0,0,0,0,0,0,0,0,0,0,0,0,0,0,1.317,1.317,1.321,1.321,1.324,1.327,1.331,1.335,1.336,1.339,1.34,1.34,1.342,1.342,1.343,1.343,1.343,1.343,1.343,1.343,1.344,1.344,1.344,1.346,1.347,1.348,1.35,1.351,1.354,1.355,1.357,1.361,1.361,1.364,1.365,1.365,1.368,1.368,1.37,1.371,1.374,1.375,1.378,1.381,1.383,1.383,1.384,1.387,1.387,0,0,2.127,2.13,2.133,2.14,2.144,2.151,2.162,2.176,2.187,2.194,2.205,2.213,2.216,2.22,2.228,2.231,2.239,2.243,2.247,2.251,2.258,2.262,2.27,2.274,2.282,2.29,2.298,2.302,2.302,2.314,2.314,2.318,2.318,2.322,2.322,2.326,2.326,2.331,2.331,2.331,2.331,2.326,2.326,2.326,2.326,2.331,2.331,2.331,2.331,2.335,2.335,2.335,2.335,2.335,2.335,2.335,2.335,2.335,2.339,2.339,2.343,2.343,2.347,2.351,2.356,2.356,2.356,2.36,2.368,2.377,2.381,2.39,2.403,2.416,2.425,2.434,2.448,2.452,2.462,2.466,2.471,2.471,2.476,2.476,2.48,2.48,2.485,2.485,2.485,2.49,2.494,2.494,2.499,2.499,2.504,2.509,2.514,2.523,2.528,2.538,2.543,2.553,2.568,2.573,2.593,2.609,2.624,2.635,2.64,2.651,2.656,2.667,2.678,2.689,2.711,2.722,2.728,2.728,2.739,2.728,2.728,2.728,2.711,2.705,2.694,2.689,2.672,2.661,2.656,2.645,2.64,2.635,2.624,2.609,2.603,2.593,2.588,2.593,2.593,2.593,2.603,2.609,2.614,2.614,2.619,2.619,2.619,2.624,2.624,2.624,2.619,2.614,2.614,2.614,2.614,2.614,2.614,2.609,2.609,2.609,2.609,2.609,2.603,2.603,2.603,2.603,2.603,2.593,2.593,2.588,2.588,2.588,2.588,2.588,2.588,2.588,2.593,2.603,2.603,2.609,2.614,2.614,2.619,2.619,2.624,2.624,2.629,2.629,2.629,2.629,2.629,2.624,2.624,2.629,2.624,2.629,2.635,2.635,2.64,2.645,2.651,2.661,2.661,2.672,2.672,2.672,2.678,2.678,2.683,2.689,2.689,2.689,2.705,2.705,2.711,2.711,2.722,2.722,2.739,2.745,2.762,2.78,2.786,2.792,2.804,2.828,2.846,2.903,2.948,3.002,3.051,3.117,3.232,3.28,3.305,3.347,3.426,3.444,3.471,3.499,3.518,3.527,3.537,3.546,3.546,3.527,3.527,0,0,0,0,0,0,0,0,0,0,0,0,0,0,0,0,0,0,0,0,0,0,0,0,0,0,0,0,0,0,0,0,0,0,0,0,0,2.331,2.331,0,2.326,2.331,2.331,2.331,2.331,2.331,2.335,2.331,2.335,2.331,2.322,2.314,2.302,2.298,2.29,2.286,2.282,2.282,2.282,2.274,2.274,2.274,2.274,2.274,2.274,2.274,2.27,2.262,2.262,2.258,2.251,2.251,2.247,2.251,2.251,2.262,2.27,2.282,2.286,2.298,2.31,2.314,2.318,2.322,2.326,2.326,2.326,2.326,2.326,2.326,2.322,2.322,2.318,2.31,2.282,2.247,2.228,2.213,2.194,2.165,2.133,2.116,2.109,2.106,2.103,2.103,2.103,2.103,2.103,2.103,2.103,2.106,2.106,2.109,2.113,2.109,2.113,2.113,2.116,2.12,2.123,2.127,2.127,2.13,2.133,2.13,2.123,2.116,2.106,2.096,2.086,0,0,2.037,2.028,2.019,2.012,2.012,2.009,2.009,2.006,2,1.991,1.979,1.958,1.938,1.921,1.91,1.902,1.896,1.891,1.888,1.888,1.891,1.893,1.893,1.896,1.896,1.899,1.896,1.896,1.896,1.893,1.902,1.904,1.907,1.913,1.918,0,0,0,0,0,0,0,0,0,0,0,1.822,1.82,1.82,1.82,1.82,1.822,1.825,1.827,1.827,1.83,0,0,0,0,2.476,2.476,2.476,2.476,2.471,2.471,2.466,2.462,2.452,2.448,2.425,2.421,2.407,2.403,2.39,2.381,2.381,2.381,2.381,2.381,2.381,2.381,2.381,2.381,2.381,2.381,2.39,2.39,2.39,2.39,2.394,2.394,2.403,2.403,2.403,2.403,2.407,2.407,2.407,2.407,2.407,2.407,2.407,2.403,2.403,2.403,2.394,2.394,2.381,2.373,2.364,2.356,2.351,2.347,2.343,2.335,2.331,2.322,2.322,2.318,2.314,0,2.302,0,0,0,0,0,0,0,0,0,0
0,0,0,0,0,0,0,0,0,0,0,0,0,1.32,1.32,1.321,1.321,1.321,1.324,1.327,1.331,1.333,1.336,1.337,1.339,1.342,1.342,1.342,1.343,1.343,1.343,1.343,1.343,1.343,1.343,1.343,1.344,1.346,1.347,1.348,1.348,1.351,1.354,1.357,1.36,1.361,1.364,1.365,1.368,1.368,1.37,1.37,1.371,1.374,1.375,1.378,1.38,1.381,1.383,1.384,1.384,1.386,1.386,0,0,2.12,2.123,2.127,2.13,2.133,2.144,2.151,2.162,2.176,2.19,2.198,2.209,2.213,2.216,2.224,2.228,2.228,2.235,2.235,2.243,2.247,2.251,2.258,2.262,2.27,2.274,2.286,2.29,2.29,2.302,2.302,2.31,2.31,2.314,2.318,2.318,2.322,2.322,2.322,2.326,2.322,2.322,2.322,2.322,2.322,2.322,2.322,2.322,2.326,2.331,2.331,2.335,2.331,2.331,2.331,2.331,2.335,2.335,2.335,2.339,2.339,2.343,2.347,2.351,2.351,2.356,2.356,2.36,2.368,2.373,2.381,2.394,2.403,2.421,2.425,2.439,2.452,2.452,2.462,2.466,2.471,2.471,2.476,2.476,2.48,2.48,2.48,2.485,2.485,2.485,2.49,2.494,2.494,2.499,2.504,2.514,2.514,2.518,2.528,2.528,2.543,2.553,2.568,2.578,2.593,2.603,2.619,2.635,2.64,2.645,2.656,2.661,2.667,2.678,2.683,2.689,2.694,2.694,2.705,2.694,2.694,2.689,2.689,2.678,2.678,2.667,2.661,2.656,2.645,2.64,2.635,2.629,2.619,2.603,2.593,2.588,2.588,2.578,2.578,2.588,2.588,2.603,2.609,2.609,2.614,2.619,2.619,2.624,2.619,2.619,2.619,2.614,2.614,2.614,2.614,2.609,2.609,2.603,2.603,2.593,2.593,2.593,2.593,2.588,2.593,2.593,2.588,2.588,2.588,2.578,2.578,2.578,2.578,2.578,2.578,2.578,2.588,2.593,2.593,2.603,2.609,2.614,2.614,2.614,2.619,2.619,2.619,2.624,2.619,2.619,2.624,2.619,2.619,2.619,2.619,2.619,2.629,2.635,2.64,2.645,2.651,2.656,2.661,2.661,2.667,2.667,2.672,2.672,2.678,2.683,2.683,2.683,2.689,2.694,2.694,2.705,2.711,2.722,2.728,2.739,2.745,2.762,2.768,2.78,2.798,2.822,2.846,2.896,2.948,3.002,3.051,3.124,3.24,3.28,3.313,3.356,3.426,3.462,3.471,3.499,3.518,3.518,3.537,3.537,3.527,3.518,3.518,0,0,0,0,0,0,0,0,0,0,0,0,0,0,0,0,0,0,0,0,0,0,0,0,0,0,0,0,0,0,0,0,0,0,0,0,2.335,2.335,2.335,0,2.335,2.335,2.335,2.335,2.335,2.335,2.335,2.335,2.335,2.331,2.322,2.314,2.31,2.298,2.29,2.282,2.282,2.274,2.274,2.274,2.282,2.282,2.282,2.282,2.274,2.274,2.274,2.27,2.262,2.262,2.251,2.251,2.251,2.251,2.251,2.258,2.27,2.274,2.286,2.298,2.31,2.314,2.318,2.326,2.326,2.326,2.326,2.326,2.326,2.326,2.326,2.322,2.318,2.31,2.282,2.247,2.228,2.213,2.198,2.169,2.14,2.12,2.109,2.106,2.106,2.106,2.103,2.103,2.106,2.106,2.109,2.109,2.109,2.113,2.113,2.12,2.12,2.12,2.12,2.12,2.12,2.123,2.127,2.127,2.127,2.123,2.116,2.109,2.099,2.086,2.066,0,2.028,0,2.015,2.009,2.009,2.009,2.009,2.009,2.003,1.997,1.991,1.979,1.958,1.932,1.918,1.907,1.899,1.888,1.88,1.877,1.88,1.885,1.885,1.888,1.888,1.888,1.891,1.891,1.888,1.885,1.888,1.896,1.902,1.907,1.913,1.915,1.924,0,1.947,0,0,0,0,0,0,0,1.822,1.822,1.82,1.817,1.817,1.817,1.82,1.822,1.827,1.827,1.827,1.83,0,0,0,2.471,2.471,2.476,2.466,2.466,2.466,2.462,2.452,2.439,2.425,2.416,2.407,2.403,2.39,2.381,2.377,2.373,2.373,2.373,2.373,2.373,2.373,2.373,2.373,2.377,2.377,2.377,2.381,2.381,2.381,2.381,2.39,2.39,2.39,2.394,2.394,2.394,2.394,2.394,2.394,2.394,2.394,2.394,2.39,2.39,2.39,2.381,2.381,2.373,2.364,2.36,2.356,2.351,2.343,2.339,2.335,2.331,2.326,2.322,2.318,2.318,2.314,2.31,2.302,2.302,2.298,2.298,0,0,0,0,0,0
0,0,0,0,0,0,0,0,0,0,0,0,1.32,1.317,1.317,1.32,1.32,1.32,1.324,1.327,1.329,1.333,1.335,1.337,1.339,1.34,1.342,1.342,1.343,1.343,1.343,1.343,1.343,1.343,1.343,1.344,1.344,1.346,1.347,1.348,1.35,1.353,1.354,1.357,1.36,1.364,1.365,1.368,1.368,1.37,1.371,1.371,1.374,1.375,1.378,1.38,1.381,1.383,1.383,1.384,1.384,1.386,1.387,0,0,2.116,2.12,2.12,2.123,2.13,2.133,2.144,2.154,2.169,2.187,2.194,2.205,2.209,2.213,2.216,2.224,2.224,2.228,2.231,2.235,2.239,2.243,2.247,2.251,2.258,2.262,2.27,2.274,2.286,2.286,2.29,2.298,2.302,2.31,2.31,2.31,2.314,2.314,2.318,2.314,2.314,2.314,2.314,2.314,2.314,2.314,2.318,2.318,2.318,2.322,2.326,2.326,2.326,2.326,2.326,2.326,2.331,2.331,2.335,2.335,2.339,2.343,2.343,2.347,2.351,2.356,2.356,2.36,2.368,2.373,2.381,2.394,2.403,2.421,2.425,2.439,2.452,2.457,2.462,2.471,2.476,2.476,2.476,2.48,2.48,2.485,2.485,2.485,2.485,2.485,2.49,2.494,2.494,2.499,2.504,2.509,2.514,2.518,2.523,2.528,2.538,2.553,2.558,2.573,2.588,2.603,2.619,2.629,2.635,2.645,2.645,2.656,2.656,2.661,2.672,2.667,2.672,2.672,2.678,2.678,2.678,2.672,2.667,2.661,2.661,2.656,2.656,2.645,2.64,2.635,2.629,2.619,2.609,2.593,2.578,2.578,2.573,2.573,2.568,2.573,2.578,2.588,2.593,2.603,2.609,2.614,2.619,2.619,2.619,2.619,2.614,2.614,2.614,2.614,2.609,2.609,2.603,2.593,2.593,2.588,2.588,2.588,2.578,2.578,2.578,2.578,2.578,2.578,2.578,2.573,2.573,2.573,2.573,2.573,2.573,2.573,2.558,2.558,2.558,2.573,2.573,2.573,2.578,2.588,2.593,2.609,2.619,2.619,2.619,2.619,2.619,2.619,2.619,2.619,2.619,2.624,2.629,2.635,2.64,2.645,2.651,2.656,2.661,2.661,2.667,2.667,2.672,2.672,2.678,2.678,2.683,2.683,2.683,2.689,2.689,2.694,2.694,2.705,2.711,2.722,2.739,2.751,2.762,2.768,2.798,2.822,2.852,2.916,2.962,3.016,3.051,3.139,3.24,3.288,3.322,3.356,3.426,3.471,3.471,3.499,3.518,3.518,3.527,3.527,3.518,3.508,3.508,3.518,3.518,3.508,0,0,0,0,0,0,0,0,0,0,0,0,0,0,0,0,0,0,0,0,0,0,0,0,0,0,0,0,2.286,2.286,2.302,2.326,0,2.335,2.335,2.335,0,2.335,2.339,2.339,2.339,2.339,2.339,2.339,2.339,2.335,2.335,2.326,2.318,2.31,2.302,2.29,2.286,2.282,2.282,2.282,2.282,2.282,2.282,2.282,2.282,2.282,2.282,2.274,2.27,2.262,2.262,2.258,2.251,2.251,2.247,2.251,2.258,2.27,2.282,2.286,2.298,2.31,2.314,2.322,2.326,2.331,2.331,2.331,2.331,2.331,2.331,2.326,2.322,2.322,2.31,2.282,2.251,2.228,2.216,2.201,2.176,2.151,2.127,2.113,2.109,2.109,2.106,2.106,2.106,2.109,2.109,2.109,2.113,2.113,2.116,2.12,2.12,2.12,2.12,2.12,2.12,2.123,2.123,2.127,2.123,2.123,2.12,2.109,2.096,2.083,2.057,2.034,2.025,2.015,2.009,2.006,2.006,2.006,2.006,2.006,2.006,2,1.997,1.991,1.976,1.955,1.932,1.918,1.907,1.899,1.888,1.877,1.872,1.872,1.872,1.872,1.877,1.877,1.877,1.88,1.877,1.88,1.88,1.877,1.891,1.899,1.904,1.907,1.913,1.915,1.927,1.93,1.924,1.907,1.891,1.869,1.845,0,1.827,1.822,1.82,1.817,1.817,1.817,1.817,1.817,1.822,1.825,1.827,1.827,1.83,1.833,0,0,0,2.457,0,0,0,0,2.448,2.434,2.421,2.407,2.403,2.39,2.381,2.377,2.373,2.368,2.368,2.368,2.368,2.368,2.368,2.368,2.368,2.368,2.368,2.368,2.373,2.373,2.373,2.373,2.377,2.377,2.377,2.381,2.381,2.381,2.381,2.381,2.381,2.381,2.381,2.381,2.377,2.377,2.377,2.377,2.373,2.373,2.364,2.36,2.356,2.351,2.347,2.343,2.339,2.335,2.326,2.322,2.318,2.318,2.314,2.314,2.31,2.31,2.302,2.298,2.302,2.298,2.302,0,0,0,0
0,0,0,0,0,0,0,0,0,0,0,0,1.317,1.317,1.317,1.317,1.317,1.317,1.321,1.324,1.327,1.331,1.333,1.336,1.337,1.34,1.342,1.342,1.343,1.343,1.343,1.343,1.343,1.343,1.343,1.344,1.344,1.346,1.347,1.348,1.35,1.353,1.355,1.36,1.361,1.365,1.368,1.368,1.371,1.371,1.374,1.374,1.375,1.378,1.378,1.38,1.381,1.383,1.383,1.383,1.384,1.384,1.386,0,0,2.12,2.12,2.123,2.127,2.13,2.14,2.144,2.162,2.169,2.18,2.19,2.201,2.209,2.213,2.216,2.216,2.224,2.224,2.228,2.228,2.231,2.235,2.239,2.243,2.247,2.251,2.262,2.27,2.27,2.282,2.286,2.29,2.298,2.298,2.302,2.302,2.31,2.31,2.31,2.314,2.31,2.31,2.31,2.31,2.31,2.31,2.31,2.31,2.314,2.318,2.322,2.322,2.322,2.322,2.322,2.322,2.326,2.331,2.331,2.335,2.335,2.339,2.343,2.347,2.351,2.351,2.356,2.356,2.364,2.373,2.377,2.39,2.403,2.421,2.434,2.439,2.452,2.457,2.466,2.476,2.476,2.476,2.48,2.48,2.48,2.485,2.485,2.485,2.485,2.485,2.49,2.494,2.499,2.499,2.504,2.514,2.518,2.523,2.528,2.538,2.543,2.553,2.568,2.573,2.593,2.609,2.619,2.629,2.635,2.64,2.64,2.645,2.651,2.656,2.656,2.656,2.656,2.661,2.661,2.661,2.661,2.656,2.656,2.656,2.656,2.651,2.645,2.64,2.635,2.629,2.619,2.609,2.603,2.588,2.573,2.568,2.558,2.558,2.553,2.558,2.568,2.573,2.578,2.593,2.593,2.609,2.609,2.614,2.619,2.619,2.614,2.614,2.609,2.609,2.609,2.603,2.593,2.593,2.588,2.588,2.578,2.573,2.573,2.568,2.568,2.568,2.573,2.568,2.573,2.568,2.568,2.543,2.523,2.514,2.499,2.499,2.485,2.48,2.48,2.48,2.49,2.494,2.514,2.528,2.543,2.588,2.609,2.619,2.614,2.614,2.619,2.619,2.619,2.619,2.619,2.624,2.629,2.635,2.64,2.645,2.651,2.656,2.661,2.661,2.667,2.667,2.672,2.672,2.672,2.678,2.678,2.683,2.683,2.683,2.689,2.689,2.694,2.705,2.705,2.711,2.728,2.739,2.751,2.762,2.792,2.822,2.852,2.916,2.969,3.023,3.058,3.139,3.24,3.28,3.313,3.356,3.435,3.462,3.471,3.49,3.508,3.518,3.518,3.518,3.518,3.499,3.499,3.508,3.508,3.499,0,0,0,0,0,0,0,0,0,0,0,0,0,0,0,0,0,0,0,0,0,0,0,0,0,0,0,0,0,2.286,2.302,2.326,2.335,2.335,2.335,2.339,2.339,2.339,2.343,2.343,2.343,2.343,2.343,2.343,2.339,2.339,2.335,2.331,2.322,2.314,2.302,2.29,2.29,2.286,2.282,2.282,2.282,2.282,2.282,2.282,2.282,2.282,2.282,2.274,2.27,2.27,2.262,2.251,2.251,2.251,2.247,2.251,2.258,2.27,2.282,2.29,2.298,2.31,2.318,2.326,2.331,2.335,2.335,2.335,2.335,2.335,2.335,2.331,2.326,2.322,2.314,2.286,2.251,2.231,2.216,2.205,2.18,2.154,2.13,2.116,2.113,2.113,2.109,2.109,2.109,2.109,2.113,2.113,2.113,2.116,2.12,2.127,2.123,2.127,2.123,2.123,2.12,2.12,2.123,2.123,2.12,2.113,0,0,2.076,0,0,2.015,2.009,2.006,2.003,2,2,2,2.003,2.003,2.003,2,1.997,1.991,1.979,1.958,0,1.918,1.907,1.899,1.888,1.877,1.869,1.866,1.869,1.866,1.869,1.869,1.869,1.869,1.869,1.869,1.869,1.869,1.885,1.893,1.902,1.904,1.907,1.913,1.915,0,1.913,1.902,1.877,0,1.838,1.83,1.825,1.822,1.82,1.817,1.817,1.817,1.817,1.82,1.82,1.822,1.822,1.825,1.827,1.83,0,0,0,0,0,0,0,0,0,2.421,2.416,2.394,2.39,2.381,2.377,2.368,2.364,2.36,2.36,2.36,2.36,2.36,2.36,2.36,2.36,2.36,2.36,2.364,2.364,2.364,2.364,2.364,2.368,2.368,2.368,2.368,2.368,2.373,2.373,2.373,2.373,2.373,2.368,2.368,2.368,2.368,2.364,2.364,2.364,2.364,2.356,2.356,2.351,2.347,2.343,2.339,2.335,2.326,2.322,2.318,2.314,2.31,2.31,2.31,2.302,2.302,2.302,2.302,2.302,2.302,0,0,0,0,0
0,0,0,0,0,0,0,0,0,0,0,1.32,1.317,1.317,1.317,1.316,1.317,1.317,1.32,1.321,1.325,1.327,1.331,1.335,1.336,1.339,1.34,1.342,1.342,1.342,1.342,1.342,1.343,1.343,1.343,1.344,1.344,1.346,1.347,1.348,1.351,1.354,1.357,1.36,1.364,1.365,1.37,1.371,1.374,1.374,1.375,1.375,1.378,1.38,1.38,1.381,1.383,1.383,1.383,1.383,1.384,1.384,1.384,0,0,2.123,2.127,2.13,2.133,2.133,2.14,2.151,2.162,2.176,2.18,2.194,2.201,2.205,2.213,2.213,2.216,2.216,2.22,2.224,2.224,2.228,2.228,2.231,2.235,2.239,2.243,2.251,2.258,2.262,2.274,2.274,2.286,2.29,2.29,2.29,2.298,2.298,2.302,2.31,2.31,2.302,2.302,2.302,2.302,2.302,2.302,2.302,2.31,2.31,2.314,2.318,2.318,2.322,2.322,2.318,2.322,2.326,2.331,2.335,2.335,2.335,2.339,2.343,2.347,2.351,2.351,2.356,2.36,2.364,2.373,2.381,2.39,2.403,2.421,2.434,2.448,2.457,2.466,2.476,2.476,2.48,2.48,2.48,2.485,2.485,2.485,2.485,2.485,2.485,2.49,2.494,2.494,2.499,2.499,2.509,2.514,2.518,2.523,2.528,2.543,2.553,2.558,2.573,2.578,2.593,2.609,2.619,2.624,2.635,2.635,2.64,2.64,2.645,2.645,2.645,2.645,2.645,2.645,2.645,2.645,2.651,2.651,2.651,2.645,2.645,2.645,2.64,2.635,2.629,2.619,2.614,2.603,2.588,2.573,2.558,2.558,2.543,2.543,2.538,2.543,2.553,2.558,2.573,2.578,2.588,2.593,2.603,2.609,2.614,2.614,2.614,2.609,2.609,2.609,2.609,2.603,2.593,2.588,2.588,2.578,2.573,2.568,2.568,2.558,2.558,2.558,2.558,2.558,2.543,2.523,2.504,2.485,2.471,2.448,2.416,2.403,2.368,2.36,2.368,2.373,2.403,2.434,2.462,2.48,2.494,2.523,2.568,2.603,2.603,2.614,2.614,2.619,2.619,2.619,2.619,2.624,2.635,2.635,2.64,2.645,2.651,2.656,2.661,2.661,2.667,2.667,2.672,2.672,2.672,2.678,2.678,2.678,2.683,2.689,2.689,2.689,2.694,2.705,2.705,2.711,2.722,2.739,2.745,2.762,2.792,2.828,2.859,2.922,2.982,3.023,3.058,3.139,3.232,3.28,3.305,3.339,3.408,3.444,3.462,3.49,3.499,3.508,3.508,3.508,3.508,3.49,3.499,3.508,3.508,3.499,3.49,3.471,3.471,3.444,3.426,3.399,0,0,0,0,0,0,0,0,0,0,0,0,0,0,0,0,0,0,0,0,0,0,0,2.29,2.31,2.331,2.335,2.339,2.339,2.339,2.343,2.343,2.347,2.347,2.351,2.351,2.347,2.347,2.343,2.343,2.339,2.335,2.326,2.318,2.314,2.302,2.298,2.29,2.29,2.29,2.286,2.286,2.282,2.282,2.282,2.282,2.282,2.274,2.27,2.262,2.262,2.258,2.251,2.247,2.247,2.247,2.258,2.27,2.282,2.286,2.298,2.31,2.318,2.326,2.335,2.335,2.335,2.335,2.335,2.335,2.335,2.335,2.331,2.322,2.314,2.286,2.258,2.235,2.22,2.209,2.19,2.165,2.14,2.123,2.116,2.113,2.113,2.109,2.109,2.113,2.113,2.113,2.116,2.12,2.127,2.13,2.133,2.13,2.127,2.123,2.12,2.123,2.12,2.113,0,0,0,0,0,0,2.009,2.006,2,2,1.997,1.997,1.997,1.997,2,2,2,2,1.997,1.994,1.979,1.961,1.941,1.921,1.91,1.902,1.891,1.88,1.869,1.866,1.861,1.861,1.861,1.861,1.861,1.861,1.861,1.858,1.861,1.861,1.877,1.888,1.893,1.902,1.902,1.904,1.907,1.904,1.904,1.888,1.858,1.843,1.833,1.827,1.822,1.82,1.817,1.817,1.817,1.817,1.817,1.817,1.82,1.822,1.822,1.822,1.822,1.825,0,0,0,0,0,0,0,0,0,2.407,2.394,2.39,2.377,2.373,2.364,2.364,2.36,2.356,2.356,2.356,2.356,2.356,2.356,2.356,2.356,2.356,2.356,2.356,2.356,2.36,2.36,2.36,2.36,2.36,2.36,2.36,2.364,2.364,2.364,2.364,2.364,2.36,2.36,2.36,2.36,2.36,2.356,2.356,2.356,2.356,2.356,2.351,2.343,2.343,2.339,2.335,2.331,2.322,2.314,2.314,2.314,2.31,2.31,2.31,2.31,2.302,2.31,2.31,2.31,2.31,2.31,2.314,2.314,2.318,2.318
0,0,0,0,0,0,0,0,0,0,0,1.321,1.32,1.32,1.32,1.317,1.317,1.317,1.317,1.32,1.324,1.325,1.331,1.333,1.335,1.337,1.339,1.34,1.342,1.342,1.342,1.342,1.342,1.343,1.343,1.344,1.344,1.347,1.347,1.348,1.353,1.355,1.36,1.364,1.365,1.37,1.371,1.374,1.375,1.375,1.378,1.378,1.38,1.38,1.381,1.383,1.383,1.383,1.383,1.383,1.383,1.383,1.383,0,0,2.133,2.133,2.14,2.14,2.144,2.151,2.162,2.165,2.176,2.19,2.194,2.201,2.209,2.209,2.213,2.216,2.216,2.216,2.22,2.224,2.224,2.224,2.228,2.228,2.231,2.239,2.243,2.247,2.258,2.262,2.27,2.282,2.286,2.29,2.29,2.29,2.298,2.302,2.302,2.302,2.302,2.302,2.302,2.302,2.302,2.302,2.302,2.31,2.31,2.314,2.322,2.322,2.326,2.322,2.326,2.326,2.331,2.335,2.335,2.339,2.339,2.343,2.347,2.351,2.356,2.356,2.356,2.36,2.368,2.377,2.39,2.394,2.407,2.425,2.439,2.457,2.462,2.471,2.476,2.48,2.485,2.485,2.485,2.485,2.49,2.49,2.485,2.485,2.49,2.49,2.494,2.494,2.499,2.499,2.509,2.514,2.523,2.523,2.528,2.543,2.553,2.568,2.578,2.588,2.603,2.609,2.619,2.629,2.635,2.635,2.64,2.64,2.64,2.64,2.64,2.64,2.64,2.64,2.64,2.64,2.645,2.645,2.645,2.645,2.645,2.64,2.64,2.635,2.624,2.614,2.609,2.593,2.578,2.568,2.558,2.553,2.528,2.528,2.523,2.523,2.538,2.543,2.558,2.568,2.573,2.588,2.593,2.609,2.609,2.609,2.609,2.609,2.609,2.609,2.609,2.603,2.588,2.588,2.573,2.568,2.558,2.553,2.553,2.553,2.553,2.543,2.528,2.509,2.49,2.471,2.439,2.381,2.351,0,0,0,0,0,0,0,0,0,2.36,2.403,2.434,2.48,0,2.538,2.578,2.614,2.619,2.619,2.624,2.624,2.624,2.629,2.635,2.64,2.64,2.645,2.651,2.656,2.661,2.661,2.667,2.667,2.672,2.672,2.672,2.678,2.678,2.678,2.683,2.683,2.689,2.689,2.689,2.694,2.705,2.711,2.722,2.739,2.745,2.762,2.798,2.828,2.865,2.922,2.989,3.03,3.066,3.146,3.24,3.28,3.305,3.339,3.408,3.444,3.462,3.471,3.49,3.499,3.499,3.499,3.499,3.49,3.49,3.499,3.499,3.49,3.49,3.471,3.462,3.444,3.426,3.399,0,0,0,0,0,0,0,0,0,0,0,0,0,0,0,0,0,0,0,0,2.29,0,0,0,0,2.331,0,0,2.339,2.343,2.347,2.351,2.351,2.356,2.356,2.356,2.356,2.351,2.351,2.347,2.343,2.339,2.335,2.326,2.322,2.314,2.302,2.298,2.298,2.29,2.29,2.286,2.286,2.286,2.282,2.282,2.274,2.274,2.27,2.262,2.262,2.258,2.251,2.251,2.247,2.247,2.258,2.27,2.282,2.29,2.298,2.31,2.322,2.331,2.335,2.335,2.335,2.335,2.335,2.335,2.335,2.335,2.331,2.326,2.314,2.29,2.262,2.239,2.224,2.213,2.198,2.176,2.151,2.13,2.127,2.12,2.113,2.113,2.113,2.113,2.116,2.12,2.123,2.127,2.13,2.133,2.14,2.14,2.133,2.127,2.123,2.12,2.113,2.103,2.096,2.076,0,0,2.009,2.006,2,0,1.997,1.994,1.994,1.994,1.994,1.997,1.997,1.997,2,2,1.997,1.994,1.982,1.967,1.947,1.924,1.913,1.904,1.893,1.88,1.872,1.866,1.861,1.858,1.858,1.853,1.853,1.851,1.853,1.853,1.851,1.858,1.866,1.88,1.888,1.893,1.893,1.896,1.899,0,1.888,1.866,1.843,1.833,1.827,1.825,1.822,1.82,1.817,1.817,1.815,1.815,1.815,1.815,1.817,1.82,1.82,1.82,1.822,1.822,0,0,0,0,0,0,0,0,0,2.381,0,2.368,2.368,2.36,2.356,2.356,2.351,2.351,2.351,2.351,2.351,2.351,2.351,2.351,2.351,2.351,2.351,2.351,2.356,2.356,2.356,2.356,2.356,2.356,2.356,2.356,2.356,2.356,2.356,2.356,2.356,2.356,2.356,2.356,2.356,2.351,2.351,2.351,2.351,2.351,2.351,2.343,2.343,2.339,2.335,2.331,2.322,2.318,2.31,2.302,2.302,2.302,2.302,2.302,2.302,2.31,2.31,2.31,2.31,2.31,2.314,2.314,2.314,2.318,2.318
0,0,0,0,0,0,0,0,0,0,1.325,1.324,1.321,1.32,1.32,1.317,1.316,1.317,1.32,1.321,1.324,1.325,1.331,1.333,1.336,1.337,1.339,1.342,1.342,1.343,1.343,1.343,1.343,1.343,1.344,1.344,1.347,1.347,1.348,1.35,1.354,1.357,1.361,1.365,1.368,1.37,1.374,1.375,1.378,1.378,1.38,1.38,1.381,1.383,1.383,1.383,1.384,1.384,1.384,1.383,1.383,1.383,1.383,0,0,2.144,2.151,2.151,2.151,2.154,2.162,2.169,2.176,2.187,2.19,2.198,2.201,2.209,2.209,2.213,2.213,2.216,2.216,2.22,2.224,2.224,2.224,2.224,2.228,2.228,2.235,2.239,2.247,2.258,2.262,2.274,2.282,2.29,2.29,2.29,2.298,2.298,2.302,2.302,2.31,2.302,2.302,2.302,2.302,2.302,2.31,2.31,2.31,2.314,2.318,2.322,2.326,2.326,2.331,2.331,2.335,2.335,2.339,2.339,2.343,2.343,2.351,2.351,2.356,2.356,2.36,2.364,2.368,2.373,2.381,2.39,2.403,2.416,2.434,2.452,2.462,2.471,2.476,2.48,2.485,2.49,2.494,2.49,2.494,2.494,2.494,2.485,2.485,2.485,2.49,2.494,2.494,2.499,2.499,2.509,2.514,2.523,2.528,2.538,2.553,2.558,2.573,2.578,2.593,2.609,2.614,2.619,2.629,2.635,2.635,2.635,2.64,2.64,2.64,2.64,2.64,2.64,2.64,2.64,2.64,2.64,2.64,2.64,2.64,2.64,2.64,2.635,2.629,2.619,2.614,2.603,2.588,2.573,2.558,2.543,2.538,2.528,2.518,2.518,2.514,2.518,2.538,2.543,2.558,2.558,2.573,2.588,2.593,2.603,2.609,2.609,2.609,2.603,2.603,2.593,2.593,2.588,2.578,2.568,2.558,2.543,2.543,2.538,2.528,2.528,2.514,2.494,2.471,2.407,0,0,0,0,0,0,0,0,0,0,0,2.209,2.216,0,0,0,0,0,0,0,0,0,0,0,0,0,0,0,0,0,0,0,0,2.661,2.661,2.667,0,0,0,0,0,0,2.678,2.678,2.683,2.683,2.689,2.689,2.689,2.694,2.705,2.722,2.728,2.745,2.751,2.798,2.828,0,2.935,2.996,3.03,3.073,3.162,3.24,3.28,3.305,3.339,3.399,3.435,3.444,3.471,3.49,3.49,3.499,3.499,3.49,3.471,3.49,3.499,3.49,3.49,3.49,3.471,3.462,3.444,3.426,3.399,0,0,0,0,0,0,0,0,0,0,0,0,0,0,0,0,0,0,2.31,2.302,2.302,0,0,0,0,0,0,0,2.343,2.343,2.347,2.351,2.356,2.356,2.36,2.36,2.36,2.356,2.356,2.351,2.347,2.343,2.339,2.331,2.326,2.322,2.314,2.302,2.302,2.298,2.298,2.29,2.286,2.282,2.274,2.274,2.274,2.274,2.27,2.262,2.258,2.258,2.251,2.251,2.251,2.251,2.258,2.27,2.282,2.286,2.298,2.31,2.318,2.331,2.335,2.335,2.335,2.335,2.335,2.335,2.335,2.335,2.331,2.326,2.314,2.29,2.27,2.243,2.228,2.216,2.205,2.187,2.162,2.14,2.133,2.127,2.116,2.113,2.113,2.116,2.12,2.123,2.127,2.13,2.133,2.144,2.144,2.144,2.133,2.123,2.12,2.113,2.106,2.096,0,0,0,0,2,1.997,1.994,1.994,1.994,1.994,1.994,1.994,1.994,1.994,1.994,1.997,1.997,1.997,1.997,1.994,1.985,1.97,1.95,1.93,1.915,1.904,1.896,1.885,1.872,1.866,1.858,1.853,1.853,1.851,1.851,1.845,1.845,1.843,1.845,1.845,1.858,1.869,1.872,1.872,1.877,1.877,1.872,0,0,1.84,1.83,1.827,1.825,1.822,1.82,1.817,1.817,1.815,1.815,1.812,1.812,1.815,1.817,1.817,1.817,1.82,1.82,1.822,0,0,0,0,0,0,0,0,0,2.364,0,2.356,2.356,2.351,2.351,2.351,2.351,2.351,2.351,2.351,2.351,2.351,2.351,2.351,2.351,2.351,2.351,2.351,2.351,2.351,2.351,2.351,2.351,2.351,2.351,2.351,2.351,2.351,2.351,2.351,2.351,2.351,2.351,2.351,2.351,2.351,2.347,2.347,2.347,2.347,2.343,2.339,2.339,2.335,2.331,2.326,2.318,2.31,2.302,2.298,2.298,2.298,2.298,2.302,2.302,2.302,2.31,2.31,2.314,2.31,2.314,2.314,2.314,2.318,2.318
0,0,0,0,0,0,0,0,0,0,1.327,1.324,1.321,1.321,1.321,1.32,1.317,1.317,1.32,1.321,1.324,1.325,1.331,1.335,1.336,1.34,1.342,1.342,1.343,1.344,1.344,1.344,1.344,1.344,1.346,1.347,1.347,1.348,1.351,1.353,1.357,1.361,1.365,1.368,1.371,1.374,1.375,1.378,1.38,1.38,1.381,1.381,1.383,1.383,1.384,1.384,1.384,1.384,1.384,1.383,1.383,1.381,1.381,1.381,0,2.162,2.162,2.165,2.165,2.165,2.176,2.176,2.187,2.19,2.198,2.201,2.205,2.209,2.213,2.213,2.213,2.216,2.216,2.216,2.22,2.22,2.224,2.224,2.224,2.228,2.231,2.239,2.243,2.251,2.262,2.27,2.282,2.29,2.298,2.298,2.298,2.302,2.302,2.31,2.31,2.31,2.31,2.31,2.31,2.31,2.31,2.314,2.314,2.314,2.322,2.326,2.331,2.331,2.331,2.335,2.335,2.339,2.343,2.343,2.347,2.351,2.356,2.356,2.36,2.364,2.368,2.373,2.377,2.381,2.394,2.407,2.416,2.425,2.452,2.462,2.476,2.48,2.485,2.49,2.494,2.499,2.499,2.499,2.499,2.499,2.494,2.49,2.49,2.49,2.494,2.494,2.494,2.499,2.499,2.509,2.518,2.523,2.528,2.538,2.553,2.568,2.578,2.593,2.603,2.614,2.619,2.624,2.629,2.635,2.635,2.635,2.635,2.64,2.64,2.64,2.635,2.635,2.635,2.635,2.635,2.635,2.635,2.635,2.635,2.64,2.64,2.635,2.624,2.614,2.609,2.593,2.573,2.568,2.543,2.528,2.528,2.523,2.514,2.509,2.509,2.514,2.523,2.528,2.543,2.558,2.558,2.573,2.588,2.593,2.593,2.603,2.603,2.603,2.603,2.593,2.593,2.588,2.578,2.568,2.553,2.543,2.528,2.528,2.518,2.499,2.48,0,0,0,0,0,0,0,0,0,2.113,2.109,2.109,2.113,2.113,2.113,2.113,2.113,2.093,2,0,0,0,0,0,0,0,0,0,0,0,0,0,0,0,0,0,0,0,0,0,1.822,1.822,0,0,0,0,2.683,2.683,2.683,2.689,2.689,2.689,2.694,2.705,2.722,2.728,2.739,2.751,2.798,2.834,0,2.942,3.002,3.037,3.08,3.162,3.24,3.28,3.305,3.33,3.399,3.435,3.435,3.462,3.49,3.49,3.49,3.499,3.49,3.471,3.49,3.499,3.49,3.49,3.49,3.471,3.462,3.444,3.426,3.399,0,0,0,0,0,0,0,0,0,0,0,0,0,0,0,0,0,0,2.318,2.314,2.314,0,0,0,0,0,0,0,2.343,2.347,2.351,2.356,2.36,2.364,2.364,2.364,2.364,2.364,2.356,2.356,2.351,2.343,2.339,2.335,2.331,2.326,2.318,2.314,2.302,2.302,2.298,2.29,2.286,2.286,2.274,2.274,2.274,2.27,2.27,2.262,2.258,2.258,2.258,2.251,2.251,2.251,2.258,2.262,2.274,2.286,2.298,2.31,2.318,2.326,2.335,2.335,2.335,2.335,2.335,2.335,2.335,2.335,2.331,2.322,2.314,2.29,2.27,2.243,2.228,2.216,2.209,2.194,2.169,2.154,2.14,2.13,2.123,2.116,2.116,2.116,2.123,2.127,2.13,2.14,2.144,2.151,2.151,2.151,2.133,2.13,2.123,2.113,2.103,0,0,0,0,2,1.994,1.991,1.988,1.991,1.991,1.988,1.988,1.991,1.991,1.994,1.994,1.997,1.997,1.997,1.997,1.994,1.988,1.976,1.955,1.93,1.915,1.907,1.896,1.885,1.869,1.861,1.853,1.851,1.845,1.845,1.843,1.84,1.84,1.838,1.84,1.84,1.845,1.851,1.851,1.851,1.845,1.845,1.843,0,1.83,1.827,1.82,1.817,1.82,1.817,1.817,1.815,1.815,1.815,1.812,1.812,1.812,1.812,1.815,1.817,1.817,1.817,1.82,1.82,0,0,0,0,0,0,0,0,0,0,0,0,2.351,2.351,2.347,2.347,2.351,2.347,2.347,2.347,2.347,2.347,2.347,2.347,2.347,2.347,2.347,2.347,2.347,2.347,2.347,2.347,2.347,2.347,2.347,2.347,2.347,2.347,2.347,2.347,2.347,2.347,2.347,2.347,2.347,2.347,2.343,2.343,2.343,2.343,2.343,2.339,2.335,2.335,2.326,2.322,2.314,2.31,2.302,2.298,2.298,2.298,2.302,2.302,2.31,2.31,2.314,2.314,2.314,2.318,2.318,2.318,2.318,2.318,2.314
0,0,0,0,0,0,0,0,0,0,1.327,1.325,1.325,1.324,1.321,1.321,1.32,1.32,1.321,1.321,1.325,1.327,1.333,1.335,1.339,1.342,1.342,1.343,1.344,1.344,1.346,1.346,1.346,1.347,1.347,1.348,1.35,1.353,1.354,1.355,1.361,1.365,1.368,1.371,1.374,1.375,1.378,1.38,1.381,1.381,1.383,1.383,1.384,1.384,1.384,1.386,1.386,1.384,1.384,1.384,1.383,1.383,1.381,1.381,0,2.176,2.176,2.176,2.18,2.187,2.187,2.19,2.194,2.198,2.201,2.205,2.209,2.209,2.213,2.213,2.216,2.216,2.216,2.216,2.22,2.22,2.22,2.224,2.224,2.228,2.231,2.239,2.243,2.251,2.262,2.27,2.282,2.29,2.298,2.302,2.302,2.31,2.31,2.31,2.314,2.314,2.314,2.314,2.314,2.318,2.318,2.318,2.318,2.322,2.326,2.331,2.335,2.335,2.335,2.339,2.339,2.343,2.347,2.351,2.351,2.356,2.36,2.368,2.368,2.373,2.377,2.381,2.39,2.394,2.403,2.416,2.425,2.448,2.462,2.476,2.48,2.485,2.494,2.499,2.499,2.504,2.504,2.504,2.504,2.504,2.499,2.494,2.49,2.49,2.494,2.494,2.494,2.499,2.499,2.509,2.518,2.523,2.528,2.538,2.553,2.568,2.578,2.593,2.609,2.619,2.624,2.629,2.635,2.635,2.635,2.64,2.64,2.64,2.64,2.64,2.64,2.635,2.635,2.635,2.635,2.635,2.635,2.635,2.635,2.635,2.635,2.624,2.619,2.609,2.593,2.588,2.573,2.553,2.543,2.528,2.523,2.514,2.509,2.504,2.504,2.504,2.514,2.518,2.528,2.543,2.553,2.568,2.573,2.578,2.593,2.593,2.593,2.593,2.593,2.593,2.588,2.578,2.573,2.558,2.543,2.538,2.528,2.518,2.499,2.476,0,0,0,0,0,0,0,2.096,2.093,2.083,2.083,2.076,2.066,2.07,2.066,2.066,2.06,2.044,2,2.022,0,0,0,0,0,0,1.835,1.833,1.833,0,0,0,0,0,1.827,1.827,1.827,0,1.825,1.825,1.825,1.827,1.827,1.825,0,0,0,0,0,0,0,0,0,0,0,0,0,0,0,0,0,0,2.962,3.016,3.044,3.095,3.169,3.248,3.28,3.305,3.33,3.382,3.426,3.435,3.462,3.471,3.49,3.49,3.49,3.49,3.471,3.471,3.49,3.49,3.471,3.49,3.471,3.462,3.435,3.426,3.399,0,0,0,0,0,0,0,0,0,0,0,0,0,0,0,0,0,0,2.326,2.322,2.322,0,0,0,0,0,0,2.347,2.351,2.351,2.356,2.356,2.364,2.364,2.368,2.368,2.368,2.368,2.364,2.356,2.351,2.347,2.343,2.339,2.335,2.335,2.326,2.318,2.314,2.31,2.302,2.298,2.29,2.286,2.282,2.274,2.274,2.274,2.27,2.27,2.262,2.258,2.251,2.258,2.251,2.251,2.258,2.262,2.274,2.286,2.298,2.302,2.314,2.322,2.331,2.335,2.335,2.335,2.335,2.335,2.335,2.331,2.331,2.322,2.314,2.29,2.27,2.247,2.231,2.224,2.213,2.201,2.187,2.165,2.151,2.133,2.127,2.12,2.12,2.12,2.127,2.13,2.133,2.144,2.151,2.154,2.162,2.154,2.151,2.133,2.127,2.113,0,0,0,0,2,1.997,1.994,1.991,1.988,1.988,1.988,1.988,1.991,1.991,1.991,1.994,1.994,1.994,1.997,1.997,1.994,1.994,1.985,1.97,1.955,1.932,1.915,1.907,1.902,1.888,1.872,1.866,1.858,1.851,1.845,1.843,1.84,1.838,1.835,1.833,1.833,1.833,1.835,1.835,1.833,1.83,1.83,1.827,1.825,1.822,1.82,1.817,1.812,1.812,1.812,1.812,1.812,1.812,1.812,1.812,1.81,1.81,1.81,1.812,1.812,1.817,1.817,1.817,1.817,1.82,1.822,1.822,0,0,0,0,0,0,0,0,0,0,0,2.343,2.343,2.343,2.343,2.343,2.351,2.351,2.351,2.351,2.351,2.351,2.351,2.351,2.351,2.351,2.351,2.351,2.347,2.347,2.347,2.347,2.347,2.347,2.347,2.347,2.347,2.347,2.347,2.347,2.347,2.347,2.347,2.347,2.343,2.343,2.343,2.343,2.343,2.339,2.335,2.335,2.326,2.322,2.314,2.31,2.302,2.298,2.302,2.302,2.302,2.31,2.31,2.314,2.318,2.318,2.318,2.318,2.318,2.318,2.318,2.318,2.314
0,0,0,0,0,0,0,0,0,0,1.329,1.327,1.325,1.324,1.324,1.321,1.32,1.321,1.321,1.325,1.327,1.331,1.335,1.337,1.34,1.343,1.344,1.344,1.347,1.347,1.348,1.348,1.348,1.348,1.35,1.351,1.353,1.355,1.357,1.361,1.365,1.37,1.371,1.374,1.375,1.378,1.38,1.381,1.383,1.383,1.383,1.384,1.386,1.386,1.386,1.386,1.386,1.386,1.384,1.384,1.384,1.384,1.383,1.381,0,0,2.19,2.19,2.194,2.194,2.194,2.198,2.198,2.201,2.205,2.209,2.209,2.209,2.213,2.213,2.216,2.216,2.216,2.216,2.22,2.22,2.22,2.224,2.224,2.224,2.228,2.235,2.243,2.251,2.262,2.27,2.282,2.298,2.302,2.302,2.31,2.31,2.314,2.314,2.318,2.318,2.318,2.318,2.322,2.322,2.322,2.322,2.326,2.326,2.331,2.335,2.339,2.339,2.339,2.343,2.343,2.351,2.351,2.356,2.36,2.364,2.373,2.377,2.377,2.39,2.39,2.394,2.403,2.407,2.421,2.425,2.448,2.462,2.471,2.48,2.485,2.494,2.499,2.504,2.509,2.514,2.514,2.514,2.509,2.504,2.499,2.494,2.494,2.494,2.494,2.494,2.499,2.499,2.499,2.504,2.514,2.523,2.528,2.538,2.558,2.568,2.588,2.603,2.614,2.619,2.629,2.635,2.635,2.64,2.64,2.64,2.64,2.64,2.64,2.64,2.64,2.635,2.635,2.635,2.635,2.629,2.635,2.629,2.629,2.629,2.629,2.614,2.603,2.603,2.588,2.578,2.568,2.543,2.528,2.523,2.518,2.514,2.509,2.499,2.499,2.509,2.509,2.518,2.523,2.538,2.543,2.553,2.568,2.578,2.588,2.593,2.593,2.603,2.593,2.593,2.593,2.578,2.573,2.558,2.543,2.538,2.523,2.518,2.485,0,0,0,0,0,0,2.079,2.066,2.047,2.034,2.028,2.022,2.019,2.015,2.015,2.015,2.009,2.006,1.997,1.994,0,0,1.907,0,1.88,1.866,1.858,1.851,1.845,1.845,1.843,1.84,1.838,1.835,1.835,1.833,1.83,1.83,1.83,1.83,1.83,1.827,1.827,1.827,1.827,1.827,1.827,1.825,1.822,1.822,1.82,1.82,1.817,0,0,0,0,0,0,0,0,0,0,0,0,0,0,0,0,3.28,3.297,3.322,3.373,3.426,3.435,0,0,0,0,3.49,3.49,3.471,3.471,3.471,3.49,3.471,3.471,3.462,0,0,0,0,0,0,0,0,0,0,0,0,0,0,0,0,0,0,0,0,0,2.318,2.318,2.318,2.318,2.318,0,0,0,0,0,2.351,2.356,2.356,2.356,2.364,2.368,2.368,2.373,2.373,2.373,2.368,2.364,2.36,2.356,2.351,2.343,2.339,2.339,2.335,2.331,2.322,2.318,2.314,2.31,2.302,2.298,2.29,2.282,2.282,2.282,2.282,2.274,2.274,2.27,2.262,2.258,2.258,2.258,2.251,2.262,2.27,2.274,2.282,2.29,2.302,2.314,2.322,2.326,2.331,2.335,2.335,2.335,2.335,2.331,2.326,2.322,2.318,2.31,2.286,2.27,2.251,2.235,2.224,2.216,2.209,2.194,2.176,2.162,2.144,2.133,2.127,2.123,2.123,2.13,2.133,2.14,2.144,2.154,2.165,2.165,2.162,2.151,2.133,2.12,2.109,2.096,0,0,2.009,2,1.997,1.991,1.991,1.991,1.988,1.991,1.991,1.991,1.991,1.994,1.994,1.994,1.994,1.994,1.994,1.994,1.991,1.985,1.976,1.958,1.932,1.918,1.91,1.902,1.891,1.877,1.866,1.858,1.851,1.843,1.84,1.838,1.835,1.833,1.83,1.83,1.827,1.827,1.827,1.825,1.822,1.82,1.817,1.815,1.81,1.805,1.805,1.802,1.802,1.805,1.807,1.807,1.81,1.81,1.81,1.807,1.807,1.807,1.81,1.812,1.815,1.817,1.817,1.817,1.82,1.82,1.822,1.822,1.825,0,0,0,1.833,0,0,0,0,0,2.29,2.302,2.318,2.322,2.335,2.343,2.351,2.351,2.351,2.351,2.351,2.347,2.343,2.343,2.343,2.343,2.343,2.343,2.343,2.343,2.343,2.343,2.343,2.343,2.343,2.343,2.343,2.343,2.343,2.343,2.343,2.343,2.343,2.343,2.343,2.343,2.343,2.339,2.335,2.335,2.326,2.322,2.318,2.31,2.302,2.298,2.298,2.298,2.302,2.302,2.31,2.31,2.314,2.318,2.318,2.318,2.318,2.318,2.318,2.318,2.314,2.31
0,0,0,0,0,0,0,0,0,0,1.329,1.327,1.327,1.325,1.325,1.325,1.321,1.324,1.325,1.327,1.331,1.335,1.337,1.34,1.343,1.344,1.346,1.348,1.348,1.35,1.351,1.353,1.353,1.354,1.354,1.357,1.36,1.361,1.364,1.365,1.37,1.371,1.375,1.378,1.38,1.38,1.381,1.383,1.384,1.384,1.384,1.386,1.386,1.387,1.387,1.387,1.387,1.387,1.386,1.386,1.384,1.384,1.383,1.384,0,0,2.201,2.198,2.201,2.201,2.201,2.201,2.205,2.209,2.209,2.209,2.213,2.213,2.213,2.216,2.216,2.216,2.216,2.216,2.22,2.22,2.22,2.22,2.224,2.224,2.228,2.235,2.239,2.247,2.258,2.27,2.282,2.29,2.302,2.302,2.31,2.31,2.314,2.314,2.318,2.318,2.318,2.322,2.322,2.326,2.326,2.326,2.331,2.331,2.335,2.335,2.339,2.339,2.343,2.343,2.351,2.356,2.356,2.364,2.368,2.373,2.381,2.394,2.394,2.403,2.407,2.407,2.416,2.425,2.434,2.448,2.457,2.466,2.476,2.48,2.485,2.494,2.499,2.504,2.509,2.514,2.514,2.509,2.509,2.509,2.499,2.494,2.494,2.494,2.494,2.494,2.499,2.499,2.499,2.504,2.514,2.523,2.528,2.543,2.553,2.568,2.578,2.603,2.614,2.624,2.629,2.635,2.64,2.64,2.64,2.64,2.64,2.64,2.64,2.64,2.64,2.635,2.635,2.635,2.629,2.624,2.624,2.624,2.624,2.619,2.619,2.609,2.593,2.588,2.588,2.573,2.558,2.553,2.538,2.528,2.528,2.518,2.514,2.509,2.509,2.509,2.518,2.523,2.528,2.538,2.553,2.558,2.568,2.578,2.593,2.593,2.603,2.603,2.603,2.603,2.593,2.588,2.573,2.558,2.538,2.523,2.509,2.494,2.434,0,0,0,0,0,2.047,2.028,2.025,2.022,2.015,2.019,2.015,2.015,2.012,2.009,2.006,2.003,1.997,1.982,1.961,1.941,1.921,1.907,1.902,1.888,1.872,1.869,1.861,1.858,1.858,1.853,1.851,1.845,1.843,1.843,1.838,1.838,1.838,1.835,1.833,1.833,1.833,1.833,1.833,1.833,1.83,1.83,1.83,1.827,1.827,1.825,1.822,1.82,1.82,1.817,1.817,1.812,1.805,0,0,1.788,1.78,1.773,0,1.759,1.761,1.761,1.761,1.764,0,0,0,0,0,0,0,0,0,0,0,0,0,0,0,0,3.471,0,0,0,0,0,0,0,0,0,0,0,0,0,0,0,0,0,0,0,0,0,0,2.314,2.31,2.31,2.31,2.314,2.314,2.318,2.331,2.339,2.351,2.351,2.356,2.356,2.356,2.36,2.364,2.368,2.373,2.373,2.373,2.373,2.368,2.364,2.356,2.356,2.351,2.343,2.343,2.339,2.339,2.335,2.326,2.322,2.318,2.314,2.302,2.298,2.29,2.286,2.282,2.282,2.282,2.274,2.274,2.27,2.262,2.258,2.251,2.251,2.258,2.258,2.262,2.274,2.282,2.286,2.298,2.302,2.314,2.322,2.326,2.326,2.326,2.326,2.326,2.322,2.322,2.318,2.31,2.298,2.282,2.262,2.247,2.235,2.228,2.216,2.209,2.198,2.187,2.169,2.151,2.14,2.13,2.127,2.127,2.13,2.133,2.14,2.144,2.154,2.154,2.154,2.151,2.14,2.123,2.113,2.103,2.086,2.053,2.022,2.006,1.997,1.994,1.991,1.991,1.988,1.988,1.991,1.991,1.991,1.994,1.994,1.994,1.994,1.994,1.994,1.994,1.991,1.988,1.985,1.976,1.958,1.938,1.924,1.913,1.904,1.896,1.885,1.872,1.858,1.851,1.843,1.838,1.835,1.83,1.83,1.827,1.827,1.825,1.822,1.822,1.82,1.817,1.812,1.807,1.802,1.797,1.795,1.79,1.79,1.795,1.797,1.802,1.802,1.805,1.807,1.807,1.805,1.805,1.805,1.807,1.81,1.812,1.812,1.812,1.815,1.817,1.82,1.82,1.822,1.827,1.827,1.833,1.84,1.851,1.861,0,1.888,0,0,2.165,2.22,2.231,2.251,2.29,2.326,2.339,2.343,2.351,2.347,2.347,2.343,2.343,2.343,2.343,2.343,2.343,2.343,2.343,2.343,2.343,2.343,2.343,2.343,2.343,2.343,2.343,2.343,2.343,2.343,2.343,2.343,2.339,2.339,2.339,2.339,2.339,2.335,2.335,2.326,2.322,2.318,2.31,2.302,2.298,2.29,2.29,2.298,2.298,2.302,2.31,2.31,2.314,2.318,2.318,2.318,2.318,2.318,2.314,2.314,2.31,2.302
0,0,0,0,0,0,0,0,0,0,1.331,1.329,1.329,1.327,1.327,1.327,1.325,1.327,1.327,1.331,1.335,1.339,1.342,1.343,1.344,1.347,1.348,1.35,1.351,1.354,1.355,1.355,1.355,1.357,1.357,1.36,1.364,1.365,1.37,1.37,1.374,1.375,1.378,1.38,1.381,1.381,1.383,1.384,1.384,1.386,1.386,1.386,1.387,1.387,1.387,1.387,1.387,1.387,1.387,1.386,1.386,1.386,1.384,1.384,0,2.205,2.205,2.205,2.205,2.205,2.205,2.209,2.209,2.209,2.209,2.213,2.213,2.213,2.216,2.216,2.216,2.216,2.216,2.216,2.216,2.22,2.22,2.22,2.22,2.224,2.228,2.228,2.235,2.243,2.251,2.262,2.274,2.286,2.298,2.298,2.302,2.302,2.31,2.314,2.314,2.318,2.318,2.322,2.326,2.326,2.331,2.331,2.335,2.335,2.335,2.339,2.343,2.343,2.343,2.351,2.351,2.356,2.364,2.373,2.377,2.39,2.394,2.403,2.407,2.416,2.421,2.425,2.425,2.439,2.448,2.457,2.462,2.471,2.48,2.485,2.49,2.494,2.499,2.499,2.509,2.509,2.509,2.504,2.504,2.504,2.499,2.494,2.49,2.49,2.49,2.494,2.494,2.494,2.499,2.499,2.514,2.523,2.528,2.543,2.553,2.568,2.588,2.609,2.614,2.624,2.635,2.635,2.64,2.64,2.64,2.64,2.64,2.64,2.64,2.64,2.64,2.635,2.629,2.629,2.624,2.619,2.614,2.614,2.614,2.609,2.609,2.588,2.578,2.578,2.578,2.573,2.568,2.553,2.538,2.538,2.528,2.523,2.518,2.514,2.509,2.514,2.518,2.523,2.528,2.543,2.553,2.558,2.573,2.578,2.593,2.603,2.609,2.609,2.603,2.603,2.593,2.588,2.573,2.558,2.538,2.509,2.48,2.452,0,0,0,0,0,2.034,2.022,2.015,2.015,2.019,2.015,2.015,2.015,2.015,2.012,2.009,2.006,2,1.994,1.979,1.961,1.938,1.918,1.913,1.902,1.893,1.88,1.877,1.869,1.866,1.866,1.861,1.861,1.858,1.853,1.851,1.845,1.845,1.845,1.843,1.84,1.84,1.838,1.838,1.838,1.838,1.835,1.835,1.833,1.83,1.83,1.83,1.827,1.825,1.822,1.822,1.822,1.82,1.817,1.815,1.812,1.807,1.802,1.795,1.785,1.78,1.78,1.788,1.795,1.795,1.797,1.805,1.807,1.815,1.82,1.822,1.822,1.827,0,0,1.866,0,0,0,0,0,0,0,0,0,0,0,0,0,0,0,0,0,0,0,0,0,0,0,0,0,0,2.314,2.31,2.31,2.31,2.302,2.31,2.302,2.302,2.31,2.326,2.339,2.347,2.351,2.356,2.356,2.36,2.36,2.364,2.373,2.373,2.377,2.373,2.373,2.368,2.364,2.36,2.356,2.351,2.343,2.343,2.339,2.339,2.335,2.331,2.322,2.318,2.31,2.31,2.302,2.298,2.286,2.286,2.282,2.282,2.282,2.274,2.27,2.258,2.258,2.258,2.251,2.251,2.258,2.258,2.27,2.274,2.282,2.286,2.298,2.31,2.31,2.318,2.318,2.318,2.318,2.322,2.314,2.314,2.302,2.298,2.286,2.27,2.258,2.243,2.231,2.224,2.216,2.213,2.201,2.19,2.176,2.162,2.144,2.133,2.13,2.13,2.13,2.13,2.133,2.14,2.151,2.151,2.144,2.133,2.127,2.113,2.103,2.096,2.07,0,2.012,2,1.994,1.994,1.994,1.991,1.991,1.991,1.991,1.994,1.994,1.994,1.994,1.994,1.994,1.994,1.994,1.994,1.991,1.988,1.982,1.976,1.961,1.947,1.927,1.915,1.907,1.902,1.891,1.877,1.866,1.853,1.843,1.838,1.833,1.83,1.827,1.822,1.822,1.822,1.82,1.817,1.815,1.81,1.805,1.797,1.795,1.788,1.788,1.788,1.785,1.788,1.795,1.795,1.797,1.802,1.805,1.805,1.805,1.802,1.805,1.805,1.807,1.807,1.81,1.812,1.812,1.817,1.82,1.822,1.825,1.827,1.833,1.843,1.853,1.869,1.88,1.891,1.899,1.904,1.91,0,2.13,2.187,2.22,2.243,2.298,2.326,2.339,2.351,2.351,2.351,2.347,2.347,2.343,2.343,2.343,2.343,2.343,2.343,2.343,2.343,2.343,2.343,2.343,2.343,2.343,2.343,2.343,2.343,2.343,2.343,2.343,2.339,2.339,2.339,2.339,2.339,2.335,2.331,2.326,2.322,2.314,2.31,2.302,2.298,2.29,2.29,2.298,2.302,2.302,2.31,2.314,2.314,2.318,2.318,2.318,2.318,2.318,2.314,2.314,2.31,2.302
0,0,0,0,0,0,0,0,0,0,0,1.331,1.331,1.331,1.329,1.329,1.329,1.329,1.331,1.333,1.336,1.34,1.342,1.344,1.346,1.348,1.348,1.351,1.353,1.355,1.36,1.36,1.36,1.36,1.361,1.365,1.368,1.371,1.371,1.374,1.378,1.38,1.381,1.383,1.383,1.384,1.384,1.386,1.386,1.386,1.387,1.387,1.387,1.387,1.387,1.387,1.387,1.387,1.387,1.387,1.387,1.387,1.387,1.387,0,0,2.205,2.205,2.205,2.209,2.209,2.209,2.209,2.209,2.209,2.213,2.213,2.213,2.216,2.216,2.216,2.216,2.216,2.216,2.216,2.22,2.22,2.22,2.22,2.224,2.228,2.228,2.231,2.239,2.247,2.258,2.27,2.282,2.286,2.29,2.298,2.302,2.302,2.302,2.31,2.314,2.318,2.318,2.322,2.326,2.331,2.335,2.335,2.335,2.339,2.339,2.343,2.343,2.347,2.351,2.356,2.36,2.368,2.377,2.381,2.394,2.407,2.416,2.416,2.425,2.434,2.439,2.448,2.452,2.457,2.462,2.471,2.476,2.48,2.485,2.485,2.494,2.494,2.499,2.499,2.499,2.499,2.499,2.499,2.499,2.494,2.494,2.49,2.485,2.49,2.49,2.494,2.494,2.494,2.499,2.504,2.509,2.523,2.528,2.543,2.568,2.588,2.609,2.619,2.624,2.635,2.64,2.64,2.64,2.64,2.64,2.64,2.64,2.64,2.64,2.635,2.635,2.629,2.629,2.624,2.614,2.609,2.603,2.603,2.593,2.593,2.578,2.578,2.578,2.578,2.578,2.568,2.558,2.553,2.543,2.553,2.543,2.528,2.523,2.523,2.528,2.538,2.538,2.543,2.553,2.558,2.573,2.578,2.588,2.603,2.603,2.609,2.609,2.609,2.603,2.593,2.578,2.573,2.553,2.538,2.499,2.457,2.381,0,0,0,0,2.047,2.025,2.015,2.015,2.015,2.015,2.015,2.015,2.012,2.012,2.009,2.009,2.003,1.997,1.994,1.976,1.958,1.938,1.921,1.91,1.904,1.896,1.885,1.877,1.872,1.869,1.869,1.866,1.866,1.861,1.858,1.853,1.851,1.851,1.845,1.843,1.843,1.843,1.84,1.843,1.843,1.843,1.843,1.84,1.838,1.835,1.835,1.833,1.83,1.83,1.827,1.827,1.827,1.822,1.822,1.82,1.82,1.817,1.812,1.807,1.802,1.802,1.802,1.807,1.812,1.815,1.817,1.82,1.822,1.827,1.833,1.838,1.84,1.845,1.861,1.877,1.893,1.904,1.913,0,0,0,0,1.927,0,0,0,0,0,0,0,0,0,0,0,0,0,0,0,0,0,2.314,2.314,2.314,2.31,2.31,2.31,2.31,2.31,0,2.31,2.318,2.326,0,0,0,2.356,2.356,2.36,2.364,2.368,2.373,2.373,2.373,2.373,2.368,2.364,2.36,2.356,2.356,2.351,2.343,2.343,2.339,2.339,2.335,2.326,2.322,2.318,2.314,2.31,2.302,2.298,2.29,2.286,2.286,2.286,2.282,2.282,2.27,2.258,2.251,2.251,2.258,2.251,2.251,2.251,2.258,2.262,2.27,2.282,2.282,2.29,2.298,2.302,2.31,2.31,2.31,2.31,2.302,2.298,2.29,2.286,2.274,2.262,2.247,2.239,2.228,2.224,2.216,2.213,2.205,2.194,2.18,2.165,2.154,2.14,2.133,2.133,2.13,2.133,2.133,2.14,2.14,2.133,2.127,2.12,2.113,2.103,2.096,0,0,0,2.009,2,1.994,1.994,1.994,1.991,1.991,1.991,1.991,1.994,1.994,1.994,1.994,1.994,1.994,1.994,1.994,1.991,1.988,1.985,1.982,1.976,1.967,1.95,1.932,1.921,1.913,1.904,1.896,1.885,1.869,1.853,1.843,1.835,1.83,1.827,1.822,1.82,1.82,1.817,1.815,1.81,1.805,1.795,1.788,1.785,1.78,1.778,1.778,1.778,1.78,1.785,1.79,1.79,1.797,1.797,1.802,1.802,1.802,1.802,1.802,1.802,1.805,1.807,1.807,1.81,1.812,1.817,1.82,1.822,1.827,1.83,1.84,1.853,1.866,1.88,1.891,1.899,1.904,1.907,0,2.009,0,2.123,2.187,2.216,2.262,2.314,2.339,2.356,2.356,2.351,2.351,2.351,2.347,2.347,2.343,2.343,2.343,2.343,2.343,2.343,2.343,2.343,2.343,2.343,2.343,2.343,2.343,2.343,2.343,2.343,2.343,2.339,2.339,2.339,2.339,2.339,2.335,2.331,2.326,2.322,2.314,2.31,2.302,2.298,2.29,2.29,2.298,2.302,2.302,2.31,2.314,2.314,2.318,2.318,2.318,2.318,2.318,2.314,2.314,2.31,2.302
0,0,0,0,0,0,0,0,0,0,0,1.333,1.333,1.331,1.331,1.331,1.331,1.331,1.333,1.336,1.339,1.342,1.343,1.344,1.347,1.35,1.351,1.354,1.355,1.357,1.36,1.361,1.361,1.364,1.365,1.368,1.37,1.374,1.375,1.378,1.38,1.383,1.384,1.384,1.384,1.386,1.386,1.386,1.387,1.387,1.387,1.387,1.387,1.387,1.388,1.388,1.388,1.388,1.388,1.388,1.388,1.388,1.387,1.387,0,2.205,2.205,2.205,2.205,2.205,2.209,2.209,2.209,2.209,2.209,2.209,2.213,2.213,2.213,2.216,2.216,2.216,2.216,2.216,2.216,2.216,2.22,2.216,2.22,2.224,2.224,2.228,2.228,2.235,2.239,2.251,2.258,2.27,2.282,2.286,2.286,2.29,2.298,2.298,2.298,2.302,2.31,2.314,2.318,2.322,2.326,2.331,2.335,2.335,2.339,2.339,2.343,2.347,2.347,2.351,2.356,2.36,2.373,2.381,2.39,2.403,2.416,2.421,2.434,2.439,2.448,2.457,2.457,2.462,2.466,2.471,2.476,2.48,2.48,2.48,2.485,2.485,2.494,2.494,2.494,2.494,2.494,2.494,2.494,2.494,2.494,2.485,2.485,2.485,2.485,2.485,2.485,2.49,2.49,2.494,2.499,2.504,2.514,2.523,2.538,2.558,2.578,2.603,2.614,2.624,2.635,2.64,2.64,2.64,2.64,2.64,2.645,2.645,2.645,2.64,2.64,2.635,2.635,2.635,2.619,2.614,2.614,2.609,2.593,2.593,2.588,2.578,2.578,2.578,2.593,2.588,2.588,2.573,2.568,2.568,2.568,2.558,2.553,2.543,2.543,2.543,2.543,2.553,2.553,2.558,2.568,2.573,2.578,2.588,2.603,2.609,2.609,2.609,2.609,2.603,2.593,2.578,2.568,2.538,2.504,2.471,2.377,0,0,0,0,0,2.028,2.022,2.019,2.019,2.015,2.015,2.015,2.015,2.012,2.009,2.009,2.006,2.003,1.997,1.988,1.97,1.955,1.932,1.921,1.913,1.907,1.902,1.899,1.893,1.891,1.888,1.885,1.885,1.88,1.877,1.869,1.866,1.861,1.858,1.858,1.858,1.853,1.853,1.853,1.851,1.851,1.851,1.845,1.845,1.845,1.843,1.84,1.835,1.835,1.833,1.833,1.833,1.83,1.83,1.827,1.825,1.825,1.825,1.822,1.82,1.817,1.817,1.817,1.82,1.822,1.825,1.827,1.83,1.835,1.843,1.853,1.861,1.866,1.872,1.885,1.896,1.904,0,1.918,1.921,1.927,1.932,1.932,1.938,1.938,1.932,0,0,0,0,0,0,0,0,0,0,0,0,0,0,0,0,2.314,2.318,2.318,2.314,2.314,2.314,2.314,2.318,2.318,2.322,0,2.339,0,0,2.356,2.36,2.36,2.364,2.368,2.373,2.373,2.373,2.373,2.368,2.364,2.36,2.356,2.351,2.347,2.343,2.343,2.339,2.335,2.335,2.326,2.322,2.314,2.31,2.31,2.302,2.298,2.298,2.29,2.29,2.29,2.286,2.286,2.274,2.262,2.258,2.258,2.251,2.251,2.247,2.247,2.247,2.258,2.258,2.27,2.27,2.282,2.286,2.29,2.29,2.298,2.302,2.298,2.29,2.29,2.282,2.274,2.262,2.251,2.243,2.231,2.228,2.224,2.216,2.213,2.205,2.198,2.18,2.169,2.154,2.151,2.14,2.133,2.133,2.133,2.133,2.133,2.13,2.123,2.113,2.109,2.103,2.096,2.079,2.057,0,2.015,2.006,2,1.994,1.994,1.994,1.994,1.991,1.994,1.994,1.994,1.994,1.994,1.994,1.994,1.994,1.994,1.994,1.991,1.985,1.982,1.979,1.976,1.967,1.955,1.938,1.924,1.915,1.907,1.902,1.891,1.872,1.858,1.845,1.835,1.83,1.827,1.822,1.817,1.815,1.812,1.805,1.797,1.79,1.78,1.778,1.773,1.771,1.771,1.771,1.773,1.778,1.78,1.788,1.79,1.795,1.797,1.802,1.802,1.797,1.797,1.802,1.802,1.802,1.805,1.807,1.81,1.815,1.817,1.822,1.825,1.83,1.838,1.845,1.861,1.872,1.891,1.899,1.904,1.91,1.915,1.97,1.997,2.019,0,2.13,2.19,2.228,2.29,2.326,2.351,2.356,2.351,2.356,2.351,2.351,2.351,2.347,2.343,2.343,2.343,2.343,2.343,2.343,2.343,2.343,2.343,2.343,2.343,2.343,2.343,2.343,2.343,2.343,2.339,2.339,2.339,2.339,2.339,2.335,2.331,2.326,2.322,2.314,2.31,2.302,2.298,2.29,2.298,2.298,2.302,2.31,2.31,2.314,2.314,2.318,2.318,2.318,2.318,2.314,2.314,2.31,2.31,2.302
0,0,0,0,0,0,0,0,0,0,0,1.335,1.333,1.333,1.331,1.331,1.333,1.333,1.336,1.337,1.34,1.343,1.344,1.347,1.348,1.351,1.353,1.355,1.357,1.36,1.364,1.365,1.365,1.368,1.37,1.374,1.375,1.378,1.38,1.381,1.383,1.384,1.386,1.386,1.387,1.387,1.387,1.387,1.387,1.387,1.387,1.387,1.387,1.388,1.388,1.388,1.388,1.388,1.388,1.388,1.388,1.388,1.388,1.39,0,2.205,2.205,2.205,2.205,2.205,2.205,2.205,2.209,2.209,2.209,2.209,2.209,2.213,2.213,2.213,2.213,2.213,2.216,2.216,2.216,2.216,2.216,2.216,2.216,2.22,2.224,2.224,2.228,2.231,2.235,2.243,2.251,2.258,2.262,2.27,2.274,2.282,2.282,2.286,2.29,2.29,2.298,2.302,2.31,2.318,2.322,2.331,2.335,2.335,2.339,2.339,2.343,2.343,2.347,2.351,2.356,2.36,2.368,2.377,2.39,2.394,2.416,2.425,2.425,2.439,2.448,2.452,2.462,2.462,2.466,2.476,2.476,2.476,2.48,2.48,2.48,2.48,2.485,2.485,2.485,2.49,2.485,2.485,2.49,2.49,2.49,2.485,2.485,2.48,2.485,2.485,2.485,2.49,2.49,2.494,2.499,2.504,2.509,2.518,2.528,2.553,2.573,2.593,2.609,2.619,2.629,2.635,2.64,2.645,2.645,2.645,2.645,2.645,2.645,2.645,2.64,2.64,2.635,2.64,2.635,2.624,2.624,2.614,2.603,2.603,2.593,2.588,2.588,2.593,2.609,2.603,2.603,2.593,2.588,2.578,2.588,2.573,2.568,2.558,2.558,2.553,2.553,2.553,2.553,2.568,2.568,2.573,2.578,2.593,2.593,2.603,2.609,2.609,2.603,2.603,2.588,2.568,2.543,2.504,2.476,2.394,0,0,0,0,2.086,2.057,2.028,2.022,2.019,2.015,2.015,2.015,2.015,2.015,2.012,2.009,2.009,2.006,2,1.997,1.985,1.97,1.955,1.932,1.921,1.915,1.913,1.907,1.904,1.902,1.902,1.902,1.899,1.899,1.899,1.899,1.893,1.891,1.885,1.885,1.877,1.872,1.869,1.861,1.861,1.866,1.861,1.858,1.858,1.858,1.853,1.851,1.845,1.843,1.84,1.838,1.835,1.835,1.83,1.83,1.827,1.827,1.827,1.827,1.827,1.827,1.822,1.822,1.827,1.83,1.833,1.833,1.838,1.843,1.853,1.861,1.872,1.88,1.885,1.891,1.899,1.904,1.91,1.915,1.927,1.927,1.932,1.941,1.941,1.941,1.947,1.941,1.941,0,0,0,0,0,0,0,0,0,0,0,0,0,0,2.318,2.318,2.322,2.322,2.318,2.318,2.322,2.322,2.322,2.322,2.326,0,0,0,2.351,2.356,2.36,2.364,2.364,2.373,2.373,2.373,2.368,2.368,2.368,2.364,2.356,2.356,2.351,2.351,2.343,2.343,2.339,2.339,2.335,2.331,2.326,2.318,2.314,2.314,2.314,2.31,2.302,2.302,2.302,2.302,2.298,2.29,2.282,2.27,2.262,2.258,2.251,2.247,2.247,2.247,2.247,2.247,2.247,2.258,2.258,2.27,2.274,2.282,2.286,2.29,2.29,2.29,2.286,2.282,2.274,2.27,2.258,2.247,2.239,2.228,2.224,2.22,2.216,2.213,2.205,2.198,2.18,2.169,2.162,2.151,2.144,2.14,2.133,2.13,2.127,2.123,2.12,2.113,2.109,2.103,2.096,2.079,2.057,2.037,2.022,2.009,2.003,1.997,1.997,1.994,1.994,1.994,1.994,1.994,1.994,1.994,1.994,1.994,1.994,1.994,1.994,1.994,1.994,1.991,1.985,1.979,1.976,1.976,1.967,1.955,1.947,1.932,1.921,1.913,1.904,1.896,1.88,1.861,1.845,1.835,1.83,1.822,1.82,1.815,1.81,1.805,1.795,1.788,1.778,1.771,1.766,1.764,1.764,1.764,1.766,1.771,1.773,1.78,1.785,1.788,1.795,1.795,1.797,1.802,1.797,1.797,1.797,1.797,1.802,1.802,1.805,1.81,1.812,1.817,1.822,1.827,1.833,1.843,1.853,1.872,1.888,1.896,1.902,1.907,1.915,1.927,1.95,1.982,2,2.037,2.096,2.14,2.209,2.243,2.302,2.339,2.351,2.356,2.356,2.356,2.356,2.351,2.351,2.347,2.347,2.343,2.343,2.347,2.343,2.343,2.343,2.343,2.343,2.343,2.343,2.343,2.343,2.343,2.343,2.339,2.339,2.339,2.339,2.339,2.335,2.331,2.326,2.322,2.314,2.31,2.302,2.298,2.298,2.298,2.302,2.31,2.31,2.314,2.314,2.314,2.318,2.318,2.318,2.314,2.314,2.314,2.31,2.302,2.298
0,0,0,0,0,0,0,0,0,0,0,1.335,1.333,1.333,1.333,1.333,1.333,1.333,1.335,1.337,1.34,1.343,1.344,1.347,1.348,1.351,1.353,1.355,1.36,1.361,1.365,1.365,1.368,1.37,1.371,1.374,1.378,1.381,1.383,1.384,1.386,1.387,1.387,1.387,1.387,1.387,1.387,1.387,1.387,1.387,1.387,1.387,1.387,1.388,1.388,1.388,1.388,1.39,1.39,1.39,1.39,1.39,1.39,1.39,0,2.205,2.201,2.201,2.201,2.201,2.205,2.205,2.205,2.205,2.205,2.209,2.209,2.209,2.209,2.209,2.209,2.209,2.213,2.213,2.213,2.213,2.213,2.213,2.216,2.216,2.22,2.224,2.224,2.228,2.228,2.235,2.239,2.243,2.247,2.251,2.258,2.262,2.262,2.27,2.274,2.274,2.282,2.286,2.298,2.31,2.314,2.322,2.326,2.331,2.335,2.335,2.339,2.339,2.343,2.347,2.351,2.356,2.36,2.373,2.381,2.39,2.407,2.416,2.425,2.434,2.448,2.452,2.462,2.462,2.466,2.471,2.471,2.476,2.476,2.476,2.476,2.476,2.476,2.48,2.48,2.48,2.48,2.48,2.485,2.485,2.485,2.48,2.48,2.48,2.48,2.485,2.485,2.49,2.49,2.494,2.499,2.504,2.509,2.518,2.523,2.538,2.568,2.578,2.603,2.614,2.624,2.635,2.64,2.645,2.645,2.645,2.645,2.645,2.651,2.651,2.645,2.645,2.645,2.645,2.64,2.64,2.64,2.635,2.629,2.624,2.624,2.614,2.614,2.619,2.619,2.619,2.619,2.609,2.609,2.603,2.603,2.593,2.578,2.573,2.568,2.568,2.568,2.568,2.568,2.568,2.573,2.578,2.588,2.588,2.593,2.593,2.593,2.603,2.603,2.593,2.573,2.523,2.494,2.466,0,0,0,0,0,2.096,2.06,2.044,2.025,2.022,2.019,2.015,2.015,2.019,2.019,2.015,2.015,2.012,2.009,2.006,2,1.997,1.988,0,1.958,1.938,1.927,1.918,1.915,1.915,1.915,1.913,1.913,1.915,1.915,1.915,1.921,1.918,1.918,1.915,1.913,1.907,1.907,1.904,1.902,1.896,1.893,1.891,1.891,1.888,1.891,1.888,1.88,1.88,1.872,1.869,1.866,1.858,1.858,1.851,1.843,1.84,1.84,1.84,1.84,1.838,1.835,0,1.833,0,1.838,1.843,1.845,1.851,1.853,1.858,1.869,1.877,1.888,1.893,1.896,1.902,1.907,1.913,1.915,1.927,1.938,1.941,1.947,1.95,1.95,1.95,1.95,1.95,1.95,1.947,0,0,0,0,0,0,0,0,0,0,0,0,0,2.318,2.318,2.326,2.326,2.326,2.331,2.326,2.331,2.335,2.335,2.335,2.339,0,0,2.356,2.356,2.36,2.364,2.368,2.373,2.373,2.373,2.368,2.368,2.368,2.364,2.36,2.356,2.356,2.351,2.347,2.343,2.343,2.339,2.339,2.335,2.331,2.322,2.318,2.318,2.318,2.318,2.314,2.31,2.31,2.31,2.302,2.298,2.282,2.27,2.262,2.251,2.251,2.247,2.247,2.243,2.243,2.243,2.247,2.247,2.251,2.258,2.27,2.274,2.282,2.286,2.286,2.286,2.282,2.282,2.27,2.262,2.251,2.243,2.235,2.228,2.224,2.22,2.216,2.209,2.205,2.198,2.18,2.169,2.162,2.154,2.144,2.14,2.133,2.127,2.123,2.12,2.113,2.109,2.099,2.096,2.083,2.06,2.037,2.022,2.012,2.006,2,1.997,1.994,1.994,1.994,1.994,1.994,1.994,1.994,1.997,1.997,2,2,2,2,1.997,1.997,1.994,1.985,1.982,1.976,1.97,1.967,1.961,1.95,1.941,1.93,1.915,1.91,1.902,1.888,1.866,1.851,1.835,1.827,1.82,1.817,1.81,1.805,1.795,1.788,1.78,1.771,1.764,1.761,1.761,1.761,1.761,1.764,1.766,1.773,1.778,1.785,1.788,1.79,1.795,1.797,1.797,1.797,1.797,1.797,1.797,1.797,1.802,1.805,1.807,1.812,1.82,1.822,1.83,1.84,1.853,1.869,1.888,1.899,1.904,1.91,1.913,1.918,1.927,1.947,1.961,1.991,2.009,2.057,0,2.165,2.216,2.258,2.322,2.343,2.351,2.351,2.351,2.351,2.351,2.347,2.343,2.343,2.343,2.343,2.343,2.343,2.343,2.343,2.339,2.339,2.339,2.339,2.339,2.339,2.339,2.339,2.339,2.339,2.339,2.339,2.335,2.335,2.326,2.322,2.318,2.314,2.31,2.302,2.298,2.298,2.298,2.302,2.302,2.31,2.31,2.314,2.314,2.314,2.314,2.314,2.31,2.31,2.31,2.302,2.298,2.29
0,0,0,0,0,0,0,0,0,0,0,1.336,1.336,1.335,1.333,1.335,1.333,1.335,1.337,1.339,1.342,1.343,1.344,1.347,1.348,1.351,1.353,1.355,1.357,1.361,1.364,1.365,1.368,1.371,1.375,1.378,1.38,1.383,1.384,1.386,1.387,1.387,1.387,1.388,1.387,1.387,1.387,1.387,1.387,1.387,1.387,1.387,1.388,1.388,1.388,1.388,1.39,1.39,1.39,1.39,1.391,1.391,1.391,1.391,0,2.205,2.205,2.201,2.201,2.201,2.201,2.201,2.205,2.201,2.205,2.205,2.205,2.205,2.209,2.205,2.205,2.205,2.205,2.209,2.209,2.209,2.209,2.213,2.213,2.216,2.216,2.22,2.22,2.224,2.224,2.228,2.228,2.231,2.235,2.239,2.243,2.243,2.247,2.251,2.251,2.258,2.262,2.274,2.282,2.29,2.302,2.314,2.318,2.322,2.331,2.335,2.335,2.339,2.339,2.343,2.347,2.351,2.356,2.364,2.377,2.39,2.394,2.416,2.421,2.425,2.439,2.452,2.457,2.462,2.462,2.466,2.466,2.466,2.466,2.462,2.462,2.466,2.466,2.471,2.471,2.471,2.476,2.476,2.476,2.48,2.48,2.48,2.48,2.48,2.48,2.485,2.485,2.49,2.49,2.494,2.499,2.504,2.509,2.514,2.523,2.538,2.553,2.573,2.593,2.603,2.619,2.635,2.635,2.64,2.645,2.645,2.651,2.651,2.656,2.656,2.656,2.656,2.656,2.656,2.651,2.651,2.645,2.64,2.64,2.64,2.635,2.629,2.629,2.635,2.635,2.635,2.629,2.624,2.619,2.619,2.619,2.614,2.603,2.593,2.593,2.588,2.588,2.578,2.578,2.578,2.578,2.588,2.588,2.588,2.593,2.593,2.603,2.603,2.593,2.593,2.568,2.494,2.457,2.373,2.322,2.228,0,2.113,0,2.076,2.047,2.034,2.022,2.022,2.019,2.015,2.015,2.019,2.019,2.019,2.015,2.015,2.012,2.009,2.006,2,1.991,1.976,1.961,1.95,0,1.93,1.924,1.927,1.93,1.932,1.947,1.95,1.958,1.961,1.967,1.967,1.967,1.961,1.95,1.941,1.938,1.927,1.918,1.915,1.913,1.91,1.91,1.907,1.907,1.904,1.904,1.902,1.902,1.896,1.893,1.891,1.888,1.885,1.877,1.872,1.869,1.872,1.869,1.866,1.866,1.858,1.853,1.853,1.858,1.866,1.869,1.872,1.88,1.888,1.893,1.902,1.904,1.907,1.907,1.913,1.915,1.924,1.93,1.941,1.95,1.95,1.955,1.958,1.958,1.958,1.958,1.955,1.955,1.955,0,0,0,0,0,0,0,0,0,0,0,0,2.335,2.331,2.335,2.335,2.335,2.335,2.335,2.335,2.335,2.339,2.339,2.339,2.339,0,0,2.356,2.356,2.36,2.364,2.368,2.373,2.373,2.373,2.368,2.368,2.368,2.364,2.364,2.356,2.356,2.356,2.351,2.351,2.343,2.343,2.339,2.335,2.331,2.326,2.322,2.322,2.318,2.318,2.314,2.314,2.318,2.314,2.31,2.298,2.286,2.274,2.262,2.251,2.247,2.247,2.243,2.243,2.243,2.243,2.243,2.243,2.247,2.258,2.262,2.27,2.274,2.282,2.282,2.282,2.282,2.274,2.262,2.258,2.247,2.239,2.231,2.228,2.224,2.216,2.213,2.209,2.205,2.194,2.18,2.169,2.165,2.162,2.151,2.14,2.13,2.127,2.116,2.113,2.109,2.099,2.093,2.079,2.06,2.037,2.022,2.009,2.006,2,1.997,1.994,1.994,1.994,1.994,1.994,1.997,1.997,1.997,2,2.003,2.006,2.009,2.009,2.009,2.009,2.009,2.006,1.997,1.991,1.979,1.976,1.976,1.967,1.958,1.955,1.938,1.927,1.913,1.904,1.891,1.869,1.851,1.833,1.825,1.817,1.812,1.805,1.797,1.788,1.78,1.773,1.766,1.761,1.759,1.759,1.759,1.761,1.764,1.766,1.773,1.778,1.785,1.788,1.79,1.795,1.797,1.797,1.797,1.795,1.795,1.795,1.797,1.802,1.802,1.805,1.815,1.82,1.822,1.83,1.843,1.861,1.88,1.893,1.904,1.91,1.915,1.918,1.924,1.932,1.947,1.958,1.982,1.997,2.019,0,0,2.18,2.22,2.274,2.318,2.339,2.343,2.351,2.351,2.347,2.343,2.343,2.343,2.339,2.339,2.339,2.339,2.339,2.339,2.339,2.339,2.339,2.339,2.339,2.339,2.339,2.335,2.335,2.335,2.335,2.335,2.335,2.331,2.322,2.318,2.314,2.31,2.302,2.298,2.298,2.29,2.298,2.298,2.302,2.302,2.31,2.31,2.31,2.31,2.31,2.31,2.302,2.302,2.298,2.298,2.29,2.286
0,0,0,0,0,0,0,0,0,0,1.339,1.339,1.337,1.336,1.337,1.337,1.337,1.337,1.339,1.342,1.342,1.344,1.344,1.347,1.348,1.348,1.353,1.354,1.357,1.36,1.361,1.365,1.368,1.371,1.375,1.38,1.381,1.384,1.387,1.387,1.387,1.388,1.388,1.388,1.388,1.388,1.388,1.388,1.387,1.387,1.388,1.388,1.388,1.388,1.388,1.388,1.39,1.39,1.39,1.391,1.391,1.393,1.391,1.393,0,2.201,2.201,2.198,2.198,2.201,2.201,2.201,2.201,2.201,2.201,2.201,2.201,2.201,2.205,2.201,2.198,2.198,2.198,2.201,2.201,2.205,2.209,2.209,2.209,2.213,2.213,2.216,2.216,2.216,2.216,2.22,2.22,2.224,2.224,2.228,2.228,2.231,2.235,2.239,2.243,2.247,2.251,2.262,2.274,2.286,2.298,2.31,2.314,2.322,2.326,2.331,2.335,2.335,2.339,2.339,2.343,2.347,2.351,2.36,2.373,2.377,2.39,2.394,2.403,2.416,2.425,2.439,2.448,2.452,2.452,2.457,2.457,2.457,2.452,2.452,2.452,2.452,2.452,2.457,2.452,2.452,2.457,2.462,2.466,2.471,2.476,2.476,2.476,2.476,2.48,2.48,2.485,2.485,2.49,2.494,2.499,2.499,2.504,2.509,2.518,2.528,2.543,2.568,2.573,2.588,2.609,2.624,2.635,2.64,2.64,2.645,2.645,2.651,2.656,2.656,2.661,2.656,2.656,2.656,2.656,2.656,2.656,2.651,2.645,2.645,2.645,2.64,2.64,2.64,2.64,2.64,2.635,2.635,2.635,2.635,2.635,2.629,2.624,2.614,2.614,2.609,2.609,2.603,2.593,2.593,2.593,2.593,2.593,2.593,2.593,2.593,2.603,2.603,2.603,2.558,2.509,2.471,0,0,0,0,0,2.096,2.076,2.057,2.034,2.028,2.025,2.025,2.019,2.019,2.019,2.019,2.022,2.022,2.019,2.019,2.015,2.015,2.009,2.009,0,0,2,2.003,2.012,2.009,2.044,2.028,2.028,2.037,2.028,1.997,1.994,1.997,2,2,2,1.997,1.991,1.988,1.982,1.976,1.958,0,1.938,1.932,1.93,1.924,1.924,1.918,1.915,1.913,1.913,1.91,1.907,1.907,1.904,1.902,1.902,1.899,1.902,1.902,1.899,1.899,1.896,1.893,1.891,1.888,1.891,1.893,1.893,1.896,1.902,1.904,1.907,1.913,1.915,1.921,1.924,1.93,1.938,1.947,1.95,1.958,1.961,1.967,1.967,1.967,1.967,1.967,1.967,1.967,1.961,1.967,1.961,0,0,0,0,0,0,0,0,0,0,0,0,2.331,2.331,2.335,2.335,2.335,2.335,2.339,2.339,2.339,2.343,2.343,2.343,0,0,2.356,2.36,2.364,2.364,2.373,2.377,2.373,2.373,2.373,2.373,2.368,2.368,2.368,2.364,2.36,2.36,2.356,2.351,2.351,2.343,2.343,2.335,2.335,2.331,2.322,2.322,2.322,2.318,2.318,2.314,2.318,2.314,2.31,2.298,2.29,2.274,2.262,2.258,2.247,2.247,2.243,2.243,2.243,2.239,2.243,2.243,2.247,2.251,2.262,2.262,2.274,2.274,2.274,2.274,2.274,2.27,2.258,2.251,2.243,2.235,2.228,2.224,2.22,2.216,2.213,2.209,2.205,2.194,2.18,2.176,2.165,2.162,2.151,2.14,2.13,2.123,2.113,2.109,2.099,2.089,2.076,2.057,2.034,2.019,2.009,2.006,2.003,2,1.997,1.994,1.994,1.994,1.994,1.997,1.997,1.997,2,2.006,2.009,2.015,2.025,2.028,2.028,2.034,2.028,0,0,0,1.991,1.979,1.979,1.979,1.97,1.961,1.95,1.93,1.915,1.904,1.893,1.869,1.845,1.83,1.822,1.817,1.807,1.797,1.79,1.785,1.773,1.771,1.764,1.759,1.759,1.759,1.759,1.761,1.764,1.766,1.773,1.778,1.785,1.788,1.79,1.795,1.797,1.797,1.797,1.797,1.795,1.795,1.795,1.797,1.802,1.805,1.812,1.82,1.825,1.833,1.851,1.869,1.888,1.902,1.907,1.915,1.921,1.924,1.93,1.932,1.941,1.95,1.967,1.982,1.997,2.015,0,2.113,2.169,2.224,2.262,2.31,2.331,2.339,2.343,2.343,2.343,2.339,2.339,2.339,2.339,2.339,2.339,2.339,2.339,2.339,2.339,2.339,2.339,2.339,2.339,2.335,2.335,2.335,2.335,2.335,2.335,2.335,2.331,2.326,2.318,2.318,2.314,2.31,2.302,2.302,2.298,2.298,2.302,2.302,2.31,2.31,2.31,2.31,2.31,2.31,2.302,2.302,2.298,2.298,2.29,2.29,2.286
0,0,0,0,0,0,0,0,0,0,0,1.34,1.339,1.339,1.339,1.34,1.339,1.34,1.342,1.342,1.343,1.344,1.346,1.347,1.348,1.35,1.35,1.353,1.354,1.357,1.361,1.364,1.368,1.371,1.375,1.38,1.383,1.384,1.387,1.387,1.388,1.388,1.388,1.388,1.388,1.388,1.388,1.388,1.387,1.388,1.388,1.388,1.388,1.388,1.388,1.388,1.39,1.39,1.391,1.391,1.391,1.393,1.393,1.393,0,0,2.201,2.201,2.198,2.198,2.201,2.201,2.201,2.201,2.198,2.201,2.201,2.201,2.198,2.198,2.194,2.194,2.194,2.194,2.198,2.201,2.205,2.205,2.209,2.209,2.209,2.209,2.209,2.213,2.213,2.213,2.216,2.216,2.216,2.22,2.224,2.228,2.228,2.228,2.231,2.235,2.243,2.251,2.262,2.27,2.286,2.298,2.31,2.314,2.318,2.322,2.326,2.331,2.335,2.339,2.339,2.343,2.347,2.351,2.36,2.373,2.377,2.39,2.394,2.407,2.416,2.425,2.434,2.439,2.448,2.448,2.448,2.448,2.439,2.439,2.439,2.434,2.434,2.434,2.434,2.439,2.439,2.448,2.452,2.457,2.462,2.466,2.471,2.476,2.476,2.48,2.485,2.485,2.485,2.49,2.494,2.499,2.504,2.504,2.514,2.523,2.538,2.543,2.568,2.578,2.593,2.614,2.624,2.635,2.635,2.64,2.645,2.651,2.656,2.656,2.656,2.656,2.661,2.661,2.661,2.661,2.656,2.656,2.651,2.651,2.645,2.645,2.645,2.645,2.64,2.645,2.645,2.64,2.64,2.64,2.64,2.635,2.635,2.629,2.624,2.619,2.614,2.609,2.603,2.609,2.603,2.603,2.603,2.593,2.593,2.593,2.603,2.603,2.578,2.523,2.48,0,0,0,0,2.127,2.096,2.079,2.057,2.044,2.028,2.028,2.025,2.025,2.022,2.022,2.019,2.022,2.022,2.025,2.025,2.025,2.022,2.022,0,0,0,0,0,0,0,0,0,0,0,0,0,0,2.053,2.034,2.019,2.015,2.009,2.006,2,1.997,0,1.991,1.985,0,0,1.961,0,1.95,1.95,1.941,1.932,1.93,1.927,1.924,1.921,1.918,1.915,1.915,1.913,1.913,1.913,1.915,1.913,1.913,1.913,1.91,1.91,1.91,1.91,1.91,1.91,1.913,1.913,1.921,1.927,1.938,1.947,1.95,1.955,1.961,1.967,1.97,1.976,1.976,1.979,1.979,1.979,1.979,1.979,1.976,1.979,1.976,1.97,1.97,0,0,0,0,0,0,0,0,0,0,0,0,0,0,0,0,0,2.343,2.347,2.351,2.351,2.351,2.356,2.351,2.356,2.356,2.364,2.364,2.364,2.368,2.368,2.373,2.377,2.373,2.373,2.373,2.377,2.377,2.373,2.373,2.368,2.368,2.364,2.36,2.356,2.351,2.347,2.343,2.339,2.335,2.335,2.326,2.322,2.322,2.322,2.322,2.318,2.318,2.314,2.31,2.298,2.286,2.274,2.262,2.258,2.251,2.247,2.243,2.243,2.243,2.239,2.243,2.243,2.243,2.251,2.258,2.262,2.274,2.274,2.274,2.274,2.274,2.262,2.258,2.247,2.243,2.235,2.228,2.224,2.22,2.216,2.213,2.209,2.205,2.194,2.187,2.176,2.165,2.162,2.151,2.14,2.127,2.12,2.109,2.103,2.093,2.076,2.057,2.037,2.019,2.009,2.006,2,1.997,1.997,1.994,1.994,1.994,1.994,1.994,1.997,2,2,2.006,2.012,2.022,2.034,2.053,2.06,2.066,0,0,0,0,0,0,0,0,1.982,1.979,1.976,1.958,1.932,1.915,1.904,1.891,1.861,1.84,1.83,1.82,1.812,1.805,1.79,1.785,1.778,1.771,1.766,1.764,1.761,1.759,1.759,1.761,1.761,1.766,1.771,1.773,1.778,1.785,1.788,1.79,1.797,1.797,1.797,1.797,1.797,1.795,1.795,1.795,1.797,1.797,1.805,1.812,1.82,1.825,1.835,1.851,1.872,1.888,1.902,1.91,1.915,1.921,1.927,1.927,1.932,1.932,1.941,1.955,1.967,1.982,2,2.022,0,2.113,2.187,2.224,2.262,2.31,2.335,2.343,2.347,2.343,2.343,2.343,2.339,2.339,2.339,2.339,2.339,2.339,2.339,2.339,2.335,2.335,2.335,2.335,2.335,2.335,2.335,2.335,2.335,2.335,2.335,2.331,2.326,2.322,2.318,2.318,2.314,2.31,2.302,2.302,2.302,2.302,2.31,2.31,2.31,2.31,2.302,2.302,2.302,2.302,2.298,2.298,2.29,2.29,2.286,2.286
0,0,0,0,0,0,0,0,0,0,0,0,0,1.342,1.342,1.342,1.342,1.342,1.342,1.343,1.343,1.344,1.346,1.347,1.348,1.348,1.35,1.353,1.354,1.355,1.36,1.364,1.365,1.37,1.375,1.38,1.384,1.387,1.387,1.388,1.388,1.388,1.39,1.388,1.388,1.388,1.388,1.388,1.388,1.387,1.388,1.387,1.387,1.388,1.388,1.388,1.388,1.39,1.39,1.391,1.391,1.391,1.391,1.393,0,2.205,2.201,2.201,2.201,2.201,2.201,2.201,2.198,2.198,2.198,2.198,2.198,2.194,2.194,2.19,2.19,2.187,2.19,2.19,2.194,2.194,2.198,2.201,2.205,2.209,2.209,2.209,2.209,2.209,2.213,2.213,2.213,2.213,2.216,2.216,2.22,2.224,2.224,2.228,2.228,2.231,2.239,2.243,2.251,2.262,2.274,2.29,2.298,2.31,2.314,2.318,2.318,2.322,2.331,2.335,2.335,2.339,2.343,2.347,2.356,2.36,2.368,2.377,2.381,2.394,2.403,2.421,2.421,2.425,2.434,2.434,2.434,2.434,2.425,2.425,2.425,2.421,2.421,2.421,2.421,2.425,2.425,2.434,2.439,2.452,2.457,2.462,2.466,2.471,2.476,2.48,2.48,2.485,2.485,2.49,2.494,2.494,2.499,2.499,2.509,2.518,2.528,2.538,2.553,2.568,2.578,2.603,2.614,2.629,2.635,2.64,2.64,2.651,2.656,2.656,2.661,2.661,2.661,2.661,2.661,2.661,2.661,2.661,2.656,2.656,2.651,2.651,2.645,2.645,2.645,2.645,2.645,2.645,2.645,2.64,2.64,2.64,2.635,2.635,2.629,2.624,2.619,2.609,2.603,2.593,2.593,2.588,2.588,2.588,2.573,2.578,2.588,2.588,2.543,2.494,0,0,0,0,2.133,2.103,2.083,2.06,2.044,2.037,2.028,2.028,2.025,2.025,2.022,2.022,2.022,2.025,2.025,2.028,2.028,2.028,2.028,0,0,0,0,0,0,0,0,0,0,0,0,0,0,2.165,2.086,2.06,2.047,2.034,2.025,2.019,2.009,2.009,2.006,2,1.997,0,1.985,1.982,0,1.967,1.967,1.958,1.955,1.947,1.941,1.938,1.932,1.932,1.93,1.924,1.924,1.924,1.924,1.927,1.927,1.924,1.924,1.924,1.924,1.924,1.924,0,0,1.93,1.941,1.95,1.958,1.967,1.976,1.982,1.985,1.985,1.988,1.985,1.985,1.988,1.988,1.988,1.985,1.985,1.982,1.982,1.982,1.979,1.979,1.976,1.976,0,0,0,0,0,0,0,0,0,0,0,0,0,0,0,0,0,2.364,2.368,2.368,2.368,2.368,2.364,2.364,2.364,2.368,2.368,2.368,2.368,2.368,2.373,2.377,2.377,2.373,2.377,2.377,2.377,2.377,2.377,2.377,2.373,2.368,2.364,2.36,2.356,2.351,2.347,2.339,2.339,2.335,2.335,2.331,2.326,2.326,2.322,2.322,2.318,2.314,2.31,2.298,2.286,2.274,2.27,2.258,2.251,2.247,2.247,2.243,2.243,2.243,2.243,2.243,2.247,2.251,2.262,2.27,2.274,2.282,2.282,2.282,2.274,2.27,2.258,2.251,2.243,2.235,2.228,2.224,2.224,2.216,2.213,2.213,2.205,2.194,2.187,2.176,2.169,2.165,2.151,2.14,2.127,2.116,2.109,2.099,2.086,2.06,2.044,2.025,2.009,2.006,2,1.997,1.997,1.994,1.994,1.994,1.994,1.994,1.997,1.997,2,2.006,2.012,2.025,2.037,2.06,2.079,2.083,0,2.096,0,0,0,0,0,0,0,0,1.982,1.976,1.955,1.927,1.913,1.902,1.885,1.851,1.833,1.825,1.817,1.807,1.797,1.788,1.778,1.773,1.766,1.764,1.761,1.759,1.759,1.759,1.761,1.764,1.766,1.771,1.778,1.78,1.785,1.79,1.795,1.797,1.802,1.802,1.797,1.797,1.797,1.795,1.795,1.797,1.802,1.805,1.812,1.817,1.827,1.835,1.853,1.872,1.888,1.902,1.907,1.915,1.918,1.924,1.927,1.927,1.93,1.932,1.941,1.95,1.961,1.982,2,0,2.089,2.123,2.19,2.224,2.251,2.31,2.335,2.343,2.343,2.343,2.343,2.339,2.339,2.339,2.339,2.339,2.339,2.339,2.335,2.335,2.335,2.335,2.335,2.331,2.331,2.331,2.331,2.335,2.335,2.335,2.331,2.331,2.326,2.322,2.322,2.318,2.314,2.31,2.302,2.302,2.302,2.31,2.302,2.302,2.302,2.302,2.302,2.298,2.298,2.29,2.29,2.286,2.286,2.282,2.282
0,0,0,0,0,0,0,0,0,0,0,0,0,1.342,1.342,1.343,1.343,1.343,1.344,1.344,1.344,1.344,1.346,1.347,1.348,1.348,1.35,1.35,1.353,1.354,1.36,1.361,1.365,1.37,1.375,1.38,1.384,1.387,1.388,1.388,1.39,1.39,1.39,1.39,1.388,1.388,1.388,1.388,1.388,1.387,1.387,1.387,1.387,1.387,1.388,1.388,1.388,1.39,1.39,1.39,1.391,1.391,1.39,1.391,0,0,2.201,2.201,2.201,2.201,2.201,2.201,2.201,2.201,2.198,2.194,2.194,2.19,2.19,2.187,2.18,2.187,2.187,2.187,2.187,2.19,2.194,2.198,2.198,2.201,2.205,2.205,2.209,2.209,2.209,2.213,2.209,2.213,2.213,2.213,2.216,2.216,2.22,2.224,2.224,2.228,2.231,2.239,2.247,2.258,2.27,2.282,2.29,2.298,2.302,2.314,2.314,2.318,2.322,2.326,2.331,2.335,2.339,2.343,2.351,2.356,2.364,2.373,2.377,2.39,2.394,2.407,2.416,2.421,2.421,2.421,2.421,2.421,2.416,2.416,2.416,2.416,2.416,2.416,2.407,2.416,2.416,2.421,2.434,2.439,2.448,2.452,2.462,2.471,2.476,2.476,2.48,2.48,2.485,2.49,2.494,2.494,2.499,2.499,2.504,2.514,2.523,2.528,2.543,2.558,2.573,2.593,2.614,2.624,2.629,2.635,2.645,2.645,2.651,2.656,2.661,2.661,2.661,2.661,2.667,2.661,2.661,2.661,2.661,2.656,2.656,2.651,2.651,2.651,2.651,2.651,2.645,2.645,2.645,2.645,2.64,2.64,2.64,2.635,2.629,2.624,2.619,2.614,2.603,2.593,2.588,2.588,2.578,2.578,2.568,2.568,2.573,2.573,2.514,0,0,0,0,2.123,2.099,2.089,2.066,2.057,2.044,2.037,2.034,2.034,2.028,2.028,2.025,2.025,2.025,2.028,2.028,2.034,2.037,2.037,0,0,0,0,0,0,0,0,0,0,0,0,0,0,0,0,0,2.099,2.086,2.076,2.066,2.047,2.037,2.028,2.022,2.012,2.006,2,1.997,1.994,1.991,1.985,1.982,1.979,1.967,1.961,1.958,1.955,1.95,1.947,1.941,1.938,1.932,1.932,1.932,1.932,1.932,1.932,1.932,1.93,0,0,0,0,0,0,0,0,0,0,1.982,1.988,1.991,1.991,1.991,1.991,1.994,1.991,1.991,1.991,1.991,1.988,1.988,1.988,1.985,1.985,1.982,1.982,1.979,0,0,0,0,0,0,0,0,0,0,0,0,0,2.499,2.485,2.462,2.425,2.416,2.416,2.407,2.403,2.39,2.381,2.381,2.377,2.377,2.377,2.373,2.368,2.368,2.373,2.377,2.377,2.377,2.377,2.381,2.39,2.381,2.39,2.39,2.381,2.381,2.377,2.368,2.36,2.356,2.351,2.347,2.343,2.339,2.335,2.335,2.331,2.331,2.326,2.322,2.318,2.314,2.302,2.298,2.286,2.282,2.27,2.262,2.258,2.251,2.247,2.247,2.247,2.247,2.251,2.251,2.251,2.262,2.27,2.282,2.286,2.286,2.286,2.286,2.282,2.27,2.262,2.258,2.247,2.239,2.231,2.228,2.224,2.22,2.216,2.213,2.205,2.198,2.187,2.18,2.169,2.165,2.151,2.14,2.123,2.113,2.106,2.096,2.079,2.053,2.028,2.015,2.006,2.003,1.997,1.997,1.997,1.994,1.994,1.994,1.994,1.997,1.997,2,2.006,2.009,2.025,2.047,2.066,2.089,2.096,2.103,2.113,2.123,2.165,0,0,0,0,0,0,0,0,0,1.941,1.918,1.907,1.893,0,0,1.827,1.82,1.812,1.802,1.79,1.78,1.778,1.766,1.764,1.761,1.761,1.761,1.761,1.761,1.761,1.764,1.771,1.773,1.78,1.785,1.788,1.79,1.797,1.797,1.802,1.802,1.802,1.802,1.802,1.797,1.795,1.797,1.802,1.805,1.81,1.817,1.822,1.833,1.845,1.869,1.885,1.899,1.907,1.913,1.915,1.918,1.921,1.924,1.927,1.93,1.932,1.941,1.95,1.961,1.985,2.006,2.028,0,2.12,2.187,2.216,2.262,2.31,2.335,2.343,2.343,2.343,2.339,2.339,2.339,2.335,2.339,2.335,2.335,2.331,2.331,2.326,2.326,2.326,2.326,2.326,2.326,2.326,2.331,2.331,2.331,2.331,2.326,2.326,2.322,2.322,2.318,2.314,2.31,2.31,2.302,2.302,2.302,2.302,2.302,2.302,2.298,2.298,2.298,2.29,2.29,2.286,2.286,2.286,2.282,2.282
0,0,0,0,0,0,0,0,0,0,0,0,0,0,1.343,1.344,1.344,1.344,1.344,1.346,1.346,1.347,1.347,1.347,1.348,1.348,1.348,1.35,1.353,1.354,1.357,1.364,1.368,1.371,1.378,1.381,1.386,1.387,1.388,1.39,1.39,1.39,1.39,1.39,1.39,1.388,1.388,1.388,1.388,1.387,1.387,1.387,1.387,1.387,1.388,1.388,1.388,1.388,1.39,1.39,1.39,1.39,1.39,1.39,0,0,0,2.201,2.201,2.201,2.201,2.201,2.201,2.198,2.198,2.194,2.19,2.19,2.187,2.18,2.18,2.176,2.18,2.18,2.18,2.187,2.19,2.194,2.198,2.201,2.201,2.205,2.205,2.209,2.209,2.213,2.209,2.213,2.213,2.213,2.216,2.216,2.216,2.224,2.224,2.228,2.231,2.239,2.247,2.251,2.262,2.274,2.286,2.29,2.298,2.302,2.31,2.314,2.318,2.322,2.326,2.331,2.339,2.343,2.351,2.351,2.36,2.368,2.377,2.39,2.394,2.407,2.407,2.416,2.407,2.416,2.407,2.407,2.407,2.407,2.403,2.403,2.403,2.403,2.403,2.407,2.407,2.416,2.425,2.434,2.439,2.448,2.462,2.466,2.471,2.476,2.48,2.48,2.485,2.485,2.49,2.494,2.494,2.499,2.499,2.504,2.514,2.523,2.538,2.553,2.568,2.588,2.603,2.614,2.629,2.635,2.64,2.645,2.651,2.656,2.656,2.661,2.661,2.661,2.667,2.667,2.667,2.661,2.661,2.656,2.656,2.656,2.656,2.651,2.651,2.651,2.651,2.645,2.64,2.64,2.64,2.635,2.629,2.624,2.619,2.619,2.609,2.593,2.593,2.588,2.573,2.573,2.568,2.568,2.553,2.553,2.558,2.558,2.504,0,0,0,0,2.099,2.083,2.06,2.053,2.053,2.044,2.044,2.037,2.037,2.028,2.028,2.028,2.028,2.034,2.037,2.037,2.044,2.044,2.047,2.06,2.079,2.093,0,0,0,2.198,2.235,0,0,0,0,0,0,0,0,2.14,2.113,0,2.096,2.089,2.079,2.066,2.066,2.057,2.037,2.028,2.019,2.009,2.006,2.003,2,1.997,1.994,1.988,1.982,1.979,1.976,1.97,1.967,1.961,1.958,1.955,1.955,1.95,1.955,1.95,1.95,1.947,1.947,0,0,0,0,0,0,0,0,0,0,0,0,0,1.994,1.994,1.994,1.994,1.994,1.994,1.994,1.994,1.991,1.991,1.988,1.988,1.988,1.985,1.985,1.982,0,0,0,0,0,0,0,0,0,0,0,0,0,0,0,0,0,2.452,0,0,0,0,2.394,2.394,2.39,2.39,2.377,2.373,2.373,2.373,2.377,2.381,2.381,2.381,2.39,2.39,2.394,2.394,2.403,2.394,2.394,2.394,2.39,2.381,2.377,2.368,2.356,2.356,2.347,2.343,2.339,2.339,2.335,2.335,2.331,2.326,2.318,2.314,2.31,2.298,2.29,2.282,2.274,2.27,2.262,2.258,2.251,2.251,2.247,2.251,2.251,2.258,2.262,2.27,2.282,2.286,2.29,2.298,2.298,2.29,2.286,2.282,2.27,2.262,2.251,2.243,2.235,2.228,2.224,2.224,2.216,2.213,2.209,2.198,2.19,2.18,2.169,2.165,2.151,2.133,2.12,2.113,2.103,2.093,2.07,2.044,2.025,2.012,2.006,2,1.997,1.997,1.997,1.994,1.994,1.994,1.994,1.997,2,2.003,2.009,2.019,2.044,2.076,2.089,2.103,2.109,2.116,2.154,2.176,2.213,0,0,0,0,0,0,0,0,0,1.924,1.907,0,0,0,1.83,1.82,1.817,1.805,1.795,1.785,1.778,1.771,1.766,1.764,1.764,1.764,1.764,1.764,1.764,1.766,1.771,1.773,1.778,1.785,1.788,1.788,1.795,1.797,1.802,1.805,1.805,1.802,1.802,1.802,1.797,1.797,1.797,1.802,1.805,1.81,1.817,1.822,1.83,1.843,1.858,1.877,1.891,1.902,1.907,1.913,1.915,1.915,1.918,1.921,1.924,1.927,1.932,1.938,1.947,1.967,1.985,2,2.028,0,2.113,2.18,2.224,2.27,2.318,2.343,2.343,2.339,2.339,2.339,2.339,2.335,2.335,2.335,2.335,2.331,2.326,2.326,2.322,2.322,2.322,2.322,2.322,2.326,2.326,2.331,2.331,2.331,2.326,2.326,2.322,2.322,2.318,2.314,2.314,2.31,2.302,2.31,2.31,2.31,2.302,2.302,2.302,2.302,2.298,2.298,2.286,2.286,2.286,2.286,2.286,2.286
0,0,0,0,0,0,0,0,0,0,0,0,0,1.346,1.346,1.346,1.346,1.347,1.347,1.347,1.347,1.347,1.348,1.348,1.348,1.348,1.35,1.351,1.354,1.355,1.36,1.365,1.37,1.374,1.378,1.384,1.387,1.388,1.388,1.39,1.39,1.39,1.39,1.39,1.39,1.39,1.388,1.388,1.388,1.387,1.387,1.387,1.387,1.387,1.388,1.388,1.388,1.388,1.388,1.39,1.39,1.39,1.388,1.39,0,0,0,0,2.201,2.198,2.198,2.198,2.198,2.198,2.194,2.19,2.19,2.187,2.18,2.18,2.176,2.169,2.169,2.176,2.176,2.18,2.187,2.19,2.194,2.198,2.201,2.205,2.205,2.209,2.209,2.209,2.213,2.213,2.213,2.213,2.216,2.216,2.216,2.22,2.224,2.228,2.235,2.239,2.247,2.251,2.262,2.274,2.282,2.286,2.29,2.298,2.302,2.314,2.318,2.322,2.326,2.331,2.339,2.343,2.351,2.356,2.364,2.368,2.377,2.39,2.394,2.403,2.403,2.407,2.407,2.407,2.403,2.403,2.394,2.403,2.394,2.394,2.394,2.394,2.394,2.403,2.403,2.407,2.416,2.425,2.434,2.448,2.457,2.462,2.471,2.476,2.48,2.48,2.485,2.485,2.49,2.49,2.494,2.494,2.499,2.499,2.504,2.514,2.518,2.528,2.543,2.568,2.578,2.603,2.614,2.624,2.635,2.64,2.645,2.651,2.656,2.656,2.656,2.656,2.661,2.661,2.661,2.661,2.661,2.656,2.656,2.651,2.645,2.645,2.645,2.645,2.64,2.64,2.635,2.635,2.629,2.624,2.619,2.614,2.609,2.603,2.593,2.593,2.578,2.573,2.573,2.568,2.558,2.558,2.553,2.553,2.553,2.553,0,0,0,0,2.13,2.089,2.066,2.06,2.057,2.06,2.053,2.047,2.044,2.037,2.034,2.034,2.034,2.034,2.037,2.044,2.044,2.047,2.047,2.053,2.079,2.096,2.113,2.154,2.198,2.216,2.27,2.339,0,0,0,0,0,0,2.213,2.19,2.151,2.116,2.106,2.099,2.096,2.086,2.083,2.083,2.076,2.06,2.053,2.034,2.022,2.015,2.009,2.006,2,1.997,1.994,1.991,1.985,1.982,1.979,1.976,1.97,1.967,1.958,1.958,1.958,1.958,1.955,1.955,1.955,1.95,0,0,0,0,0,0,0,0,0,0,1.997,2,2,2,2,1.997,1.997,1.994,1.994,1.994,1.994,1.994,1.991,1.991,1.988,1.988,1.988,1.985,1.985,0,0,0,0,0,0,0,0,0,2.922,0,0,0,0,0,0,2.485,2.471,2.462,2.457,2.434,2.421,2.407,2.403,2.394,2.394,2.39,2.377,2.373,2.373,2.381,2.39,2.39,2.39,2.394,2.394,2.407,2.407,2.407,2.416,2.416,2.416,2.407,2.403,2.39,2.377,2.373,2.364,2.356,2.351,2.347,2.339,2.339,2.335,2.335,2.326,2.322,2.314,2.302,2.298,2.29,2.286,2.282,2.274,2.262,2.262,2.258,2.258,2.251,2.258,2.258,2.27,2.27,2.282,2.286,2.298,2.298,2.302,2.302,2.298,2.298,2.29,2.282,2.274,2.262,2.251,2.243,2.231,2.228,2.224,2.22,2.216,2.209,2.198,2.19,2.18,2.169,2.162,2.14,2.127,2.113,2.106,2.096,2.086,2.06,2.034,2.019,2.009,2.003,2,1.997,1.997,1.997,1.994,1.994,1.994,1.994,1.997,2,2.009,2.019,2.034,2.066,2.093,2.103,2.116,2.133,2.151,2.198,2.213,2.235,0,0,0,0,0,0,0,0,0,1.91,0,0,0,1.843,1.822,1.817,1.81,1.795,1.785,1.78,1.773,1.766,1.764,1.764,1.764,1.764,1.766,1.766,1.766,1.771,1.771,1.773,1.78,1.785,1.788,1.79,1.795,1.802,1.802,1.805,1.805,1.805,1.802,1.802,1.797,1.797,1.797,1.802,1.802,1.807,1.812,1.82,1.827,1.835,1.845,1.866,1.88,1.893,1.902,1.907,1.907,1.913,1.913,1.915,1.918,1.921,1.924,1.927,1.932,1.947,1.961,1.982,2,2.025,0,0,2.19,2.228,2.286,2.339,2.339,2.339,2.339,2.339,2.339,2.335,2.335,2.335,2.331,2.326,2.322,2.318,2.318,2.318,2.314,2.318,2.318,2.322,2.322,2.326,2.331,2.331,2.326,2.326,2.326,2.326,2.322,2.318,2.318,2.314,2.31,2.314,2.314,2.318,2.314,2.314,2.314,2.31,2.31,2.31,2.298,2.29,2.29,2.29,2.29,2.29
0,0,0,0,0,0,0,0,0,0,0,0,0,0,0,1.348,1.348,1.347,1.348,1.347,1.348,1.348,1.348,1.35,1.35,1.351,1.351,1.353,1.355,1.357,1.364,1.368,1.371,1.375,1.381,1.386,1.387,1.388,1.39,1.39,1.391,1.391,1.39,1.39,1.39,1.39,1.39,1.388,1.388,1.388,1.388,1.388,1.387,1.388,1.388,1.388,1.388,1.388,1.388,1.388,1.388,1.388,1.388,1.388,0,0,0,0,0,2.201,2.201,2.201,2.198,2.194,2.19,2.187,2.18,2.176,2.176,2.169,2.165,2.165,2.165,2.165,2.169,2.176,2.18,2.187,2.19,2.194,2.198,2.201,2.205,2.209,2.209,2.209,2.213,2.213,2.213,2.213,2.216,2.216,2.22,2.224,2.228,2.231,2.239,2.243,2.247,2.258,2.27,2.274,2.282,2.29,2.29,2.298,2.302,2.314,2.318,2.322,2.326,2.335,2.339,2.343,2.351,2.356,2.364,2.373,2.377,2.39,2.394,2.394,2.403,2.403,2.403,2.403,2.394,2.394,2.394,2.394,2.394,2.39,2.39,2.39,2.39,2.394,2.394,2.403,2.407,2.421,2.425,2.439,2.452,2.462,2.471,2.476,2.476,2.48,2.48,2.485,2.485,2.485,2.49,2.494,2.494,2.499,2.499,2.504,2.514,2.523,2.528,2.543,2.568,2.578,2.593,2.614,2.624,2.635,2.635,2.64,2.645,2.645,2.651,2.656,2.656,2.656,2.656,2.656,2.656,2.651,2.651,2.645,2.645,2.645,2.64,2.64,2.64,2.635,2.629,2.619,2.619,2.614,2.609,2.603,2.593,2.588,2.588,2.578,2.578,2.573,2.568,2.568,2.558,2.558,2.553,2.543,2.553,2.543,0,0,0,0,2.154,2.099,2.079,2.066,2.06,2.066,2.057,2.053,2.047,2.047,2.044,2.044,2.037,2.037,2.044,2.047,2.047,2.053,2.057,2.06,2.089,2.106,2.14,2.198,2.224,2.247,2.314,2.351,0,0,0,0,0,0,2.209,2.18,2.14,2.109,2.096,2.096,2.089,2.083,0,2.079,2.076,2.066,0,2.044,2.028,2.019,0,0,0,0,0,0,1.994,1.994,1.988,1.988,0,0,0,1.97,1.967,1.967,1.961,1.958,0,0,0,0,0,0,0,0,0,0,0,0,0,0,0,2,2,1.997,1.997,1.997,1.994,1.994,1.994,1.994,1.991,1.991,1.988,1.988,1.988,1.985,1.985,0,0,0,0,0,0,0,0,0,2.896,2.859,2.822,0,0,0,2.528,2.49,2.476,2.476,2.466,2.452,2.434,2.421,2.407,2.407,2.403,2.39,2.381,2.377,2.377,2.381,2.39,2.39,2.39,2.403,2.407,2.416,2.416,2.421,2.421,2.421,2.425,2.425,2.421,2.407,2.403,2.39,2.377,2.368,2.36,2.351,2.347,2.343,2.339,2.335,2.326,2.318,2.314,2.302,2.298,2.29,2.286,2.282,2.274,2.27,2.262,2.262,2.262,2.262,2.27,2.27,2.274,2.282,2.286,2.29,2.302,2.31,2.314,2.314,2.31,2.31,2.298,2.29,2.286,2.282,2.262,2.251,2.239,2.231,2.228,2.224,2.216,2.209,2.198,2.187,2.176,2.165,2.151,2.133,2.12,2.109,2.099,2.093,2.076,2.047,2.022,2.012,2.006,2,1.997,1.997,1.997,1.997,1.994,1.994,1.994,1.994,1.997,2.006,2.012,2.025,2.053,2.086,2.103,2.116,2.133,2.162,2.169,0,2.224,0,0,0,0,0,0,0,0,0,0,0,0,0,1.835,1.827,1.815,1.805,1.795,1.78,1.778,1.771,1.766,1.764,1.761,1.759,1.761,1.764,1.766,1.766,1.771,1.771,1.778,1.78,1.785,1.788,1.79,1.795,1.797,1.802,1.805,1.807,1.807,1.805,1.805,1.802,1.797,1.797,1.797,1.802,1.802,1.805,1.81,1.817,1.822,1.83,1.838,1.851,1.866,1.88,1.893,1.902,1.904,1.904,1.907,1.91,1.913,1.915,1.915,1.918,1.921,1.927,1.932,1.95,1.97,1.994,2.009,0,2.113,0,2.228,2.298,2.331,2.335,2.335,2.335,2.335,2.331,2.335,2.331,2.322,2.318,2.314,2.31,2.31,2.31,2.31,2.31,2.314,2.314,2.318,2.322,2.326,2.326,2.326,2.326,2.326,2.322,2.322,2.322,2.318,2.314,2.318,2.318,2.322,2.326,2.326,2.326,2.322,2.322,2.318,2.318,2.31,2.302,2.298,2.298,2.298,2.302
0,0,0,0,0,0,0,0,0,0,0,0,0,0,1.348,1.348,1.348,1.348,1.348,1.348,1.348,1.348,1.35,1.35,1.35,1.351,1.353,1.354,1.355,1.361,1.365,1.368,1.374,1.375,1.383,1.386,1.388,1.39,1.39,1.391,1.391,1.391,1.391,1.391,1.39,1.39,1.39,1.388,1.388,1.388,1.388,1.388,1.388,1.388,1.388,1.388,1.388,1.388,1.388,1.39,1.39,1.39,1.388,1.388,0,0,0,0,0,0,2.198,2.198,2.198,2.194,2.19,2.187,2.18,2.176,2.169,2.165,2.165,2.162,2.162,2.165,2.169,2.176,2.18,2.187,2.19,2.194,2.198,2.201,2.205,2.209,2.209,2.213,2.213,2.213,2.216,2.216,2.22,2.22,2.224,2.224,2.228,2.235,2.243,2.247,2.251,2.262,2.274,2.282,2.286,2.29,2.298,2.302,2.31,2.314,2.318,2.326,2.331,2.335,2.339,2.347,2.351,2.356,2.364,2.377,2.381,2.39,2.394,2.403,2.403,2.403,2.403,2.394,2.394,2.39,2.39,2.39,2.39,2.39,2.39,2.39,2.39,2.394,2.394,2.403,2.407,2.416,2.425,2.434,2.452,2.457,2.466,2.471,2.476,2.48,2.48,2.48,2.485,2.485,2.485,2.49,2.494,2.494,2.499,2.499,2.509,2.518,2.528,2.538,2.553,2.573,2.588,2.603,2.614,2.624,2.629,2.635,2.64,2.64,2.645,2.645,2.651,2.645,2.651,2.651,2.645,2.645,2.645,2.645,2.645,2.645,2.64,2.64,2.64,2.635,2.624,2.614,2.614,2.609,2.593,2.593,2.588,2.578,2.578,2.573,2.573,2.573,2.568,2.568,2.558,2.558,2.553,2.553,0,0,0,0,0,0,2.18,2.109,2.089,2.079,2.07,2.07,2.06,2.06,2.057,2.053,2.047,2.047,2.047,2.044,2.047,2.053,2.057,2.057,2.06,2.066,2.096,2.116,2.169,2.216,0,0,0,0,0,0,0,0,0,0,2.133,0,0,0,0,0,0,0,0,0,0,0,0,0,0,0,0,0,0,0,0,0,0,1.991,1.988,1.991,0,0,0,0,1.967,0,1.958,0,0,0,0,0,0,0,0,0,0,0,0,0,0,0,0,0,1.997,1.994,1.994,1.994,1.994,1.994,1.991,1.991,1.988,1.988,1.988,1.988,1.988,1.985,1.985,0,0,0,0,0,0,0,0,2.871,0,2.834,2.81,2.745,2.661,0,2.543,2.499,2.485,2.48,2.476,2.462,2.452,2.434,2.425,2.416,2.407,2.403,2.39,2.381,2.381,2.39,2.394,2.394,2.403,2.407,2.421,2.434,2.434,2.439,2.452,2.452,2.457,2.457,2.452,2.439,2.434,2.425,2.403,2.381,2.373,2.36,2.351,2.343,2.339,2.335,2.326,2.318,2.314,2.302,2.298,2.29,2.286,2.282,2.274,2.27,2.27,2.27,2.27,2.27,2.274,2.274,2.286,2.29,2.29,2.302,2.314,2.318,2.318,2.322,2.322,2.322,2.318,2.314,2.31,2.302,2.286,2.27,2.251,2.243,2.231,2.228,2.216,2.209,2.198,2.187,2.176,2.165,2.151,2.13,2.113,2.103,2.096,2.086,2.06,2.037,2.015,2.009,2.003,2,1.997,1.997,1.997,1.997,1.994,1.994,1.994,1.997,1.997,2.006,2.022,2.044,2.07,2.099,2.113,2.13,2.162,2.176,2.19,2.22,2.228,0,0,0,0,0,0,0,0,0,0,1.845,0,0,1.822,1.817,1.802,1.79,1.78,1.773,1.771,1.766,1.764,1.761,1.761,1.761,1.764,1.764,1.766,1.771,1.773,1.778,1.778,1.785,1.788,1.79,1.795,1.797,1.802,1.805,1.807,1.807,1.807,1.807,1.805,1.802,1.797,1.797,1.797,1.797,1.797,1.802,1.805,1.812,1.82,1.825,1.83,1.838,1.851,1.861,1.877,1.888,1.893,1.899,1.902,1.904,1.907,1.91,1.913,1.915,1.915,1.918,1.924,1.927,1.941,1.967,1.988,0,0,0,0,2.251,2.318,0,0,2.335,2.335,2.335,2.335,2.331,2.322,2.318,2.314,2.31,2.31,2.31,2.302,2.31,2.31,2.314,2.318,2.326,2.331,2.331,2.331,2.331,2.326,2.326,2.326,2.322,2.318,2.318,2.322,2.326,2.331,2.335,2.335,2.335,2.335,2.331,2.331,2.326,2.318,2.314,2.302,2.302,2.302,2.302
0,0,0,0,0,0,0,0,0,0,0,0,0,0,0,1.35,1.348,1.35,1.35,1.35,1.35,1.35,1.35,1.351,1.353,1.353,1.355,1.357,1.36,1.364,1.368,1.371,1.375,1.38,1.384,1.387,1.388,1.39,1.39,1.391,1.393,1.393,1.393,1.391,1.391,1.39,1.39,1.39,1.39,1.39,1.388,1.388,1.388,1.388,1.388,1.388,1.388,1.388,1.39,1.39,1.39,1.39,1.39,1.39,0,0,0,0,0,0,2.19,2.19,2.19,2.19,2.18,2.176,2.169,2.165,2.165,2.162,2.162,2.154,2.162,2.165,2.169,2.176,2.18,2.187,2.19,2.194,2.198,2.201,2.209,2.209,2.213,2.213,2.213,2.216,2.216,2.22,2.224,2.224,2.228,2.228,2.235,2.243,2.251,2.258,2.262,2.27,2.282,2.286,2.286,2.298,2.302,2.31,2.314,2.318,2.326,2.331,2.335,2.339,2.343,2.347,2.356,2.36,2.368,2.377,2.39,2.39,2.394,2.403,2.403,2.394,2.394,2.394,2.39,2.381,2.39,2.39,2.381,2.381,2.381,2.381,2.39,2.39,2.394,2.403,2.403,2.416,2.421,2.434,2.448,2.457,2.466,2.471,2.476,2.476,2.48,2.485,2.485,2.485,2.485,2.485,2.49,2.494,2.494,2.499,2.499,2.509,2.518,2.528,2.543,2.558,2.573,2.588,2.603,2.614,2.614,2.624,2.629,2.635,2.635,2.64,2.64,2.64,2.645,2.645,2.645,2.645,2.645,2.645,2.645,2.64,2.64,2.64,2.635,2.629,2.619,2.609,2.603,2.593,2.588,2.588,2.573,2.573,2.573,2.568,2.573,2.568,2.568,2.558,2.558,2.558,2.553,0,2.543,2.543,2.499,0,0,0,0,0,2.103,2.093,2.083,2.086,2.079,2.079,2.07,2.066,2.06,2.057,2.057,2.047,2.053,2.057,2.057,2.06,2.066,2.066,2.096,0,0,0,2.216,2.231,2.251,2.282,0,0,0,0,0,0,0,2.015,0,0,0,0,0,0,0,0,0,0,0,0,0,0,0,0,0,0,1.997,0,1.994,1.991,1.991,1.991,1.988,1.985,1.982,1.982,1.982,1.979,1.97,1.967,1.967,1.961,1.958,0,0,0,0,0,0,0,0,0,0,0,0,0,1.997,1.994,1.994,1.991,1.991,1.991,1.988,1.988,1.988,1.988,1.985,1.985,1.985,1.985,1.982,0,0,0,0,0,0,2.865,2.865,2.865,2.859,2.846,2.828,2.798,0,0,2.593,0,2.494,2.49,2.485,2.476,2.462,2.452,2.439,2.425,2.421,2.407,2.394,2.39,2.39,2.39,2.403,2.403,2.407,2.421,2.434,2.448,2.452,2.457,2.466,2.466,2.471,2.476,2.471,2.462,2.457,2.448,2.434,2.407,2.39,2.364,2.356,2.347,2.339,2.335,2.326,2.318,2.314,2.302,2.298,2.29,2.286,2.282,2.274,2.27,2.27,2.27,2.274,2.274,2.274,2.282,2.286,2.29,2.302,2.31,2.314,2.322,2.326,2.335,2.335,2.335,2.335,2.335,2.335,2.326,2.318,2.298,2.274,2.258,2.239,2.228,2.22,2.209,2.198,2.187,2.176,2.162,2.144,2.127,2.113,2.103,2.093,2.079,2.053,2.028,2.012,2.006,2,1.997,1.997,1.994,1.997,1.994,1.994,1.994,1.994,1.997,2,2.012,2.034,2.06,2.089,2.106,2.123,2.151,2.176,2.19,2.198,2.224,2.231,0,0,2.335,0,0,0,0,0,0,0,0,0,1.817,1.81,1.805,1.788,1.78,1.773,1.771,1.766,1.764,1.764,1.761,1.761,1.761,1.764,1.766,1.766,1.771,1.773,1.778,1.78,1.785,1.79,1.795,1.795,1.802,1.802,1.807,1.807,1.807,1.807,1.807,1.805,1.805,1.802,1.797,1.797,1.797,1.797,1.797,1.802,1.807,1.817,1.82,1.825,1.83,1.838,1.845,1.861,1.872,1.88,1.885,1.891,1.896,1.902,1.904,1.907,1.913,1.913,1.915,1.918,1.918,1.93,1.941,1.961,0,0,0,0,2.224,2.331,0,2.339,2.339,2.339,2.335,2.335,2.335,2.326,0,0,0,0,0,2.31,2.31,2.31,2.314,2.322,2.326,2.335,2.335,2.331,2.331,2.331,2.331,2.326,2.322,2.322,2.322,2.326,2.335,2.335,2.339,2.339,2.335,2.335,2.335,2.335,2.331,2.322,2.318,2.31,2.31,2.31,2.314
