0,0,0,0,0,0,0,0,0,2.694,2.694,2.694,2.694,2.672,2.645,0,0,0,0,0,0,0,0,0,0,0,0,0,0,0,0,2.187,2.18,2.154,2.127,0,0,2.113,2.113,2.113,2.113,2.116,2.123,2.133,2.151,2.162,2.176,2.19,2.201,2.209,2.213,2.216,2.216,2.224,2.224,2.228,2.228,2.231,2.235,2.239,2.243,2.247,2.251,2.258,2.262,2.27,2.274,2.282,2.286,2.29,2.298,2.302,2.318,2.322,2.335,2.339,2.343,2.351,2.364,2.377,2.403,2.416,2.425,2.448,2.452,2.462,2.471,2.476,2.48,2.48,2.485,2.49,2.494,2.499,2.509,2.523,2.543,2.558,2.573,2.593,2.609,2.619,2.624,2.635,2.635,2.64,2.64,2.645,2.645,2.645,2.651,2.656,2.656,2.661,2.661,2.672,2.678,2.683,2.694,2.711,2.728,2.762,2.78,2.798,2.81,2.822,2.834,2.84,2.852,2.865,2.871,2.877,2.896,2.903,2.922,2.935,2.942,2.948,2.962,2.982,2.989,2.989,2.996,3.002,3.002,3.009,3.009,3.009,3.009,3.009,3.009,3.009,3.009,3.009,3.002,2.996,2.989,2.982,2.982,2.989,2.996,3.009,3.009,3.023,3.03,3.037,3.051,3.058,3.058,3.073,3.102,3.146,3.192,3.24,3.272,3.288,3.305,3.339,3.373,3.382,3.399,3.408,3.426,3.426,3.444,3.471,3.499,3.518,3.537,3.546,3.546,3.546,3.556,0,0,0,0,0,0,0,0,7.054,6.942,0,6.763,6.66,6.56,6.495,6.463,6.4,6.4,6.369,6.308,6.278,6.248,6.218,6.131,6.103,5.991,5.937,5.884,5.831,5.831,5.806,5.831,5.831,5.884,5.91,5.937,5.991,5.991,6.019,6.019,6.019,5.991,5.991,5.937,5.91,5.884,5.831,5.806,5.755,5.68,5.631,5.583,5.536,5.536,5.49,5.467,5.444,5.444,5.444,5.422,5.422,5.422,5.444,5.467,5.513,5.56,5.631,5.73,5.806,5.91,6.019,6.131,6.189,6.248,6.308,6.369,6.4,6.463,6.593,6.798,6.906,7.016,7.131,7.209,7.249,7.289,7.371,7.371,7.413,7.413,7.413,7.455,7.455,7.498,7.498,7.541,7.628,7.718,7.81,7.952,8.099,8.15,8.304,8.357,8.465,8.52,8.632,8.747,8.806,8.865,8.987,9.049,9.112,9.175,9.306,9.508,9.94,10.331,10.755,11.119,11.311,11.509,11.611,11.715,11.821,11.928,11.928,12.037,12.037,12.262,12.496,12.616,12.739,12.739,12.991,12.991,12.991,12.991,12.991,12.991,12.739,12.739,12.616,12.616,12.616,12.616,12.616,12.616,12.616,12.616,12.616,12.616,12.739,12.739,12.739,12.616,12.616,12.616,12.739,12.739,12.739,12.739,12.991,12.991,12.991,12.991,12.991,12.991,12.991,12.991,12.991,12.991,12.991,12.991,12.739,12.739,12.739,12.739,12.616,12.616,12.616,12.616,12.616,12.496,12.496,12.496,12.378,12.262,12.262,12.149,12.149,12.037,12.037,12.037,12.037,12.037,12.037,12.037,12.149,12.262,12.378,12.496,12.616,12.991,12.991,13.121,13.121,13.389,13.389,13.121,13.121,12.991,12.991,12.739,12.616,12.496,12.378,12.378,12.262,12.149,12.149,12.149,12.037,12.149,12.149,12.149,12.262,12.262,12.378,12.496,12.496,12.496,12.616,12.739,12.739,12.991,13.121,13.121,13.389,13.389,13.527,13.527,13.389,13.527,13.389,13.389,13.389,13.389,13.389,13.389,13.121,13.121,12.991,12.739,12.616,12.496,12.262,12.149,12.037,12.037,11.928,11.821,11.715,11.611,11.509,11.214,10.755,10.413,9.94,9.508,9.24,8.987,8.632,8.099,7.718,7.498,7.371,7.17,7.054,7.016,6.87,6.694,6.56,6.463,6.4,6.369,6.308,6.278,6.248,6.248,6.218,6.189,6.16,6.189,6.189,6.189,6.218,6.218,6.218,6.248,6.248,6.278,6.278,6.278,6.308,6.308,6.308,6.308,6.308,6.339,6.339,6.339,6.369,6.369,6.369,6.339,6.308,6.308,6.278,6.248,6.218,6.103,6.019,5.937,5.831,5.806,5.755,5.73,5.68,5.631,5.583,5.56,5.513,5.444,5.312
0,0,0,0,0,0,0,0,2.745,2.751,2.745,2.751,2.78,2.745,2.711,0,0,0,0,0,0,0,0,0,0,0,0,0,0,0,0,0,2.151,0,0,0,0,2.106,2.103,2.106,2.109,2.113,2.12,2.13,2.144,2.162,2.176,2.19,2.201,2.209,2.209,2.213,2.216,2.22,2.224,2.224,2.228,2.228,2.231,2.239,2.243,2.243,2.247,2.251,2.258,2.262,2.27,2.274,2.274,2.286,2.29,2.298,2.314,2.318,2.331,2.339,2.343,2.356,2.368,2.39,2.416,2.425,2.439,2.452,2.457,2.466,2.471,2.476,2.48,2.48,2.485,2.494,2.494,2.499,2.514,2.523,2.543,2.568,2.588,2.603,2.619,2.624,2.635,2.64,2.64,2.64,2.645,2.645,2.645,2.645,2.651,2.651,2.656,2.656,2.661,2.667,2.678,2.683,2.694,2.711,2.739,2.762,2.786,2.804,2.816,2.822,2.834,2.84,2.852,2.859,2.871,2.877,2.896,2.903,2.916,2.935,2.942,2.948,2.969,2.982,2.989,2.996,2.996,3.002,3.009,3.009,3.009,3.009,3.009,3.009,3.002,3.002,3.009,3.009,3.002,2.989,2.989,2.982,2.982,2.989,2.996,3.002,3.009,3.023,3.023,3.037,3.044,3.051,3.058,3.066,3.095,3.139,3.177,3.232,3.264,3.288,3.305,3.339,3.373,3.382,3.399,3.426,3.435,3.435,3.444,3.471,3.508,3.518,3.537,3.546,3.556,3.556,3.556,0,0,0,0,0,0,0,0,7.17,7.054,6.942,6.87,6.763,6.66,6.56,6.56,6.495,6.463,6.4,6.4,6.339,6.308,6.278,6.218,6.131,6.074,5.991,5.937,5.884,5.831,5.831,5.831,5.831,5.884,5.884,5.937,5.937,5.937,5.937,5.991,5.991,5.937,5.937,5.91,5.884,5.831,5.806,5.806,5.73,5.68,5.631,5.56,5.536,5.513,5.49,5.467,5.444,5.422,5.422,5.422,5.422,5.422,5.422,5.467,5.513,5.56,5.631,5.68,5.806,5.91,6.019,6.131,6.189,6.248,6.278,6.339,6.4,6.463,6.593,6.763,6.906,7.016,7.131,7.17,7.209,7.289,7.371,7.371,7.371,7.413,7.413,7.413,7.455,7.455,7.455,7.541,7.584,7.673,7.764,7.952,8.099,8.15,8.304,8.357,8.52,8.632,8.689,8.806,8.865,8.926,8.987,9.049,9.175,9.24,9.439,9.648,10.093,10.497,10.934,11.119,11.409,11.509,11.611,11.715,11.715,11.821,11.928,11.928,12.037,12.262,12.496,12.616,12.739,12.991,13.121,13.389,13.389,13.527,13.389,13.389,13.121,13.121,13.121,13.121,13.121,13.121,13.121,12.991,12.991,13.121,13.121,13.121,13.389,13.121,13.121,13.121,13.121,13.121,13.121,13.121,13.389,13.389,13.389,13.389,13.389,13.527,13.527,13.527,13.527,13.527,13.527,13.527,13.389,13.389,13.389,13.121,13.121,13.121,12.991,12.991,12.991,12.991,12.991,12.739,12.739,12.739,12.616,12.496,12.496,12.378,12.262,12.262,12.262,12.037,12.037,12.037,12.037,12.149,12.262,12.262,12.496,12.616,12.739,13.121,13.389,13.527,13.811,13.811,13.811,13.811,13.527,13.527,13.389,13.121,13.121,12.991,12.739,12.616,12.616,12.496,12.496,12.378,12.378,12.378,12.378,12.496,12.496,12.616,12.616,12.616,12.739,12.739,12.991,13.121,13.389,13.527,13.527,13.811,13.958,13.958,13.958,13.958,13.958,13.958,13.958,13.958,13.958,13.811,13.811,13.527,13.527,13.389,13.121,12.991,12.991,12.739,12.496,12.262,12.149,12.037,12.037,11.928,11.715,11.611,11.509,11.214,10.934,10.497,10.093,9.577,9.24,9.049,8.689,8.252,7.81,7.541,7.371,7.209,7.054,6.942,6.798,6.66,6.528,6.4,6.369,6.339,6.278,6.248,6.218,6.189,6.189,6.16,6.16,6.16,6.16,6.16,6.189,6.218,6.218,6.248,6.248,6.278,6.278,6.278,6.308,6.308,6.308,6.308,6.308,6.308,6.339,6.369,6.369,6.369,6.369,6.369,6.369,6.369,6.339,6.308,6.248,6.189,6.131,6.019,5.937,5.884,5.806,5.755,5.68,5.631,5.56,5.536,5.467,5.377,5.227
0,0,0,0,0,0,0,2.816,2.816,2.816,2.816,2.822,2.828,2.828,2.822,2.822,0,0,0,0,0,0,0,0,0,0,0,0,0,0,0,0,0,2.109,0,0,2.099,2.099,2.099,2.099,2.103,2.109,2.113,2.123,2.13,2.151,2.165,2.18,2.194,2.201,2.209,2.213,2.216,2.216,2.224,2.224,2.228,2.228,2.231,2.235,2.239,2.243,2.247,2.247,2.251,2.258,2.262,2.27,2.27,2.274,2.286,2.29,2.302,2.314,2.331,2.339,2.347,2.356,2.373,2.39,2.416,2.434,2.448,2.457,2.466,2.471,2.476,2.476,2.48,2.48,2.485,2.494,2.494,2.499,2.509,2.523,2.543,2.568,2.588,2.603,2.619,2.624,2.635,2.64,2.64,2.645,2.645,2.645,2.645,2.645,2.651,2.651,2.656,2.656,2.661,2.667,2.678,2.683,2.705,2.722,2.739,2.762,2.786,2.804,2.816,2.822,2.834,2.84,2.852,2.859,2.871,2.877,2.884,2.896,2.916,2.922,2.942,2.948,2.969,2.982,2.989,2.996,3.002,3.002,3.009,3.009,3.009,3.009,3.009,3.002,3.002,3.002,3.002,3.002,2.996,2.989,2.982,2.982,2.969,2.982,2.989,2.996,3.002,3.016,3.023,3.03,3.037,3.051,3.051,3.058,3.087,3.124,3.177,3.224,3.264,3.28,3.305,3.33,3.356,3.382,3.399,3.426,3.435,3.435,3.462,3.49,3.508,3.527,3.546,3.546,3.556,3.556,3.565,0,0,0,0,0,0,0,7.371,7.249,7.17,7.131,7.016,6.87,6.798,6.694,6.66,6.56,6.528,6.495,6.4,6.369,6.339,6.308,6.248,6.189,6.131,6.019,5.991,5.91,5.884,5.806,5.831,5.831,5.831,5.884,5.884,5.91,5.91,5.91,5.937,5.91,5.91,5.91,5.91,5.884,5.831,5.831,5.806,5.755,5.68,5.631,5.583,5.536,5.513,5.49,5.467,5.444,5.422,5.422,5.422,5.422,5.422,5.422,5.467,5.513,5.536,5.607,5.73,5.806,5.91,5.991,6.131,6.16,6.248,6.278,6.339,6.369,6.463,6.593,6.763,6.87,7.016,7.054,7.17,7.209,7.249,7.33,7.33,7.371,7.371,7.371,7.413,7.413,7.455,7.455,7.498,7.584,7.628,7.764,7.857,8.001,8.15,8.357,8.465,8.52,8.632,8.747,8.806,8.926,8.987,9.049,9.112,9.24,9.306,9.508,9.865,10.331,10.667,11.026,11.214,11.409,11.509,11.611,11.715,11.715,11.821,11.821,11.928,12.037,12.262,12.496,12.616,12.991,13.121,13.389,13.811,13.811,13.958,13.811,13.811,13.811,13.811,13.811,13.811,13.811,13.811,13.811,13.527,13.527,13.811,13.527,13.527,13.811,13.811,13.811,13.811,13.811,13.527,13.811,13.811,13.958,13.811,13.958,13.958,14.108,14.108,14.108,13.958,14.108,13.958,13.958,13.958,13.958,13.811,13.811,13.527,13.527,13.527,13.389,13.389,13.389,13.389,13.389,13.121,13.121,13.121,12.991,12.739,12.739,12.616,12.496,12.378,12.378,12.262,12.149,12.149,12.149,12.262,12.378,12.378,12.616,12.739,13.121,13.389,13.811,13.958,13.958,14.108,14.108,14.108,14.108,13.958,13.958,13.811,13.527,13.527,13.389,13.121,13.121,12.991,12.991,12.739,12.739,12.739,12.739,12.739,12.991,12.991,12.991,13.121,13.121,13.389,13.527,13.811,13.811,13.958,14.108,14.418,14.579,14.579,14.579,14.579,14.579,14.579,14.418,14.418,14.418,14.418,14.108,13.958,13.958,13.811,13.527,13.389,13.121,12.991,12.616,12.496,12.262,12.149,12.037,11.928,11.821,11.715,11.509,11.311,10.934,10.667,10.331,9.648,9.306,9.049,8.806,8.304,7.857,7.541,7.371,7.249,7.131,6.942,6.798,6.66,6.495,6.4,6.339,6.308,6.278,6.248,6.189,6.16,6.131,6.131,6.131,6.131,6.131,6.16,6.16,6.189,6.218,6.218,6.248,6.248,6.278,6.278,6.278,6.308,6.308,6.308,6.308,6.308,6.339,6.369,6.369,6.369,6.369,6.4,6.369,6.369,6.369,6.339,6.308,6.278,6.218,6.16,6.074,5.991,5.91,5.884,5.755,5.656,5.607,5.536,5.467,5.4,5.248
0,0,0,0,0,0,2.828,2.828,2.828,2.828,2.828,2.84,0,0,0,0,0,3.023,3.03,3.051,3.051,0,0,0,0,0,0,0,0,0,0,0,0,0,2.099,2.096,2.096,2.093,2.096,2.099,2.099,2.103,2.109,2.116,2.127,2.14,2.154,2.169,2.18,2.194,2.201,2.209,2.213,2.216,2.22,2.224,2.228,2.228,2.231,2.235,2.239,2.239,2.243,2.247,2.247,2.251,2.258,2.262,2.262,2.27,2.282,2.286,2.302,2.31,2.326,2.339,2.347,2.356,2.373,2.394,2.425,2.439,2.457,2.462,2.466,2.471,2.476,2.476,2.48,2.48,2.485,2.49,2.494,2.499,2.509,2.518,2.543,2.568,2.588,2.603,2.619,2.629,2.635,2.635,2.64,2.645,2.645,2.645,2.645,2.645,2.651,2.651,2.656,2.656,2.661,2.672,2.678,2.689,2.705,2.722,2.745,2.768,2.792,2.804,2.816,2.828,2.834,2.846,2.846,2.859,2.865,2.871,2.877,2.896,2.903,2.922,2.935,2.948,2.962,2.982,2.989,2.996,3.002,3.002,3.009,3.009,3.009,3.009,3.002,3.002,2.996,2.996,2.996,2.996,2.996,2.989,2.982,2.969,2.969,2.982,2.989,2.996,2.996,3.009,3.023,3.03,3.037,3.044,3.051,3.058,3.08,3.117,3.169,3.224,3.264,3.28,3.305,3.33,3.356,3.382,3.408,3.426,3.444,3.444,3.471,3.49,3.518,3.527,3.546,3.546,3.556,3.556,3.565,0,0,0,0,7.455,7.413,7.413,7.371,7.33,7.249,7.209,7.131,7.016,6.906,6.798,6.763,6.694,6.593,6.56,6.495,6.432,6.369,6.339,6.278,6.248,6.16,6.103,5.991,5.91,5.884,5.831,5.806,5.806,5.831,5.831,5.884,5.884,5.91,5.91,5.91,5.91,5.91,5.91,5.91,5.884,5.831,5.831,5.806,5.755,5.73,5.656,5.583,5.536,5.513,5.49,5.467,5.444,5.422,5.422,5.422,5.422,5.422,5.444,5.467,5.513,5.56,5.631,5.73,5.806,5.91,6.019,6.131,6.16,6.248,6.278,6.339,6.369,6.463,6.593,6.763,6.87,6.942,7.054,7.131,7.17,7.209,7.289,7.289,7.33,7.371,7.371,7.371,7.413,7.413,7.455,7.498,7.541,7.628,7.718,7.857,8.099,8.15,8.357,8.465,8.632,8.689,8.747,8.865,8.926,8.987,9.049,9.112,9.306,9.372,9.577,9.94,10.331,10.755,11.026,11.214,11.409,11.509,11.611,11.611,11.715,11.715,11.821,11.928,12.037,12.262,12.496,12.616,12.991,13.121,13.527,13.958,14.108,14.418,14.418,14.418,14.418,14.418,14.418,14.418,14.418,14.418,14.108,14.108,13.958,14.108,13.958,13.958,14.108,14.108,14.108,14.108,14.108,14.418,14.418,14.418,14.418,14.579,14.418,14.579,14.91,14.91,14.91,14.91,14.91,14.579,14.579,14.579,14.418,14.418,14.418,14.108,13.958,13.958,13.811,13.811,13.811,13.811,13.527,13.527,13.527,13.527,13.389,13.389,13.121,12.991,12.991,12.739,12.616,12.496,12.378,12.378,12.378,12.378,12.378,12.616,12.739,12.991,13.389,13.811,13.958,14.108,14.418,14.579,14.579,14.579,14.579,14.579,14.418,14.418,14.108,14.108,13.958,13.811,13.811,13.527,13.527,13.389,13.389,13.389,13.389,13.527,13.527,13.527,13.389,13.527,13.811,13.958,14.108,14.418,14.418,14.579,15.081,15.081,15.257,15.257,15.081,15.081,15.081,15.081,15.081,14.91,14.91,14.579,14.579,14.418,14.108,13.958,13.811,13.527,13.389,13.121,12.739,12.616,12.378,12.149,12.037,11.928,11.928,11.611,11.509,11.311,11.026,10.667,10.331,9.719,9.306,9.112,8.926,8.52,8.099,7.584,7.413,7.33,7.131,6.942,6.87,6.593,6.495,6.369,6.308,6.308,6.248,6.218,6.16,6.131,6.131,6.103,6.103,6.131,6.103,6.131,6.16,6.16,6.218,6.218,6.248,6.248,6.248,6.278,6.278,6.278,6.278,6.308,6.308,6.308,6.308,6.339,6.369,6.369,6.369,6.4,6.4,6.4,6.4,6.369,6.369,6.308,6.278,6.248,6.16,6.103,6.074,5.991,5.91,5.755,5.631,5.583,5.513,5.422,5.291
0,0,0,0,0,2.846,2.852,2.846,2.852,2.865,2.865,2.871,2.896,2.922,2.962,2.996,3.016,3.023,3.03,3.037,3.051,3.051,3.051,3.058,0,0,0,0,0,0,0,0,0,0,0,2.086,2.086,2.089,2.093,2.093,2.096,2.103,2.106,2.113,2.12,2.13,2.144,2.162,2.169,2.187,2.194,2.205,2.209,2.213,2.216,2.22,2.224,2.228,2.228,2.231,2.235,2.239,2.239,2.239,2.247,2.247,2.251,2.258,2.262,2.27,2.274,2.286,2.29,2.31,2.326,2.335,2.347,2.356,2.377,2.403,2.425,2.448,2.457,2.462,2.471,2.476,2.476,2.476,2.48,2.48,2.485,2.49,2.494,2.499,2.504,2.518,2.538,2.558,2.578,2.603,2.619,2.624,2.635,2.635,2.64,2.645,2.645,2.645,2.645,2.645,2.645,2.651,2.656,2.656,2.661,2.667,2.678,2.689,2.705,2.728,2.745,2.768,2.792,2.804,2.816,2.822,2.834,2.84,2.846,2.852,2.859,2.865,2.871,2.884,2.896,2.916,2.935,2.948,2.962,2.982,2.989,2.996,3.002,3.009,3.009,3.009,3.009,3.009,3.002,3.002,2.996,2.996,2.996,2.989,2.989,2.982,2.969,2.969,2.969,2.982,2.989,2.989,3.002,3.009,3.016,3.023,3.03,3.037,3.044,3.051,3.073,3.102,3.162,3.216,3.264,3.28,3.305,3.322,3.356,3.382,3.408,3.426,3.444,3.462,3.471,3.499,3.518,3.537,3.546,3.556,3.565,3.565,3.575,0,0,0,7.455,7.455,7.413,7.413,7.371,7.33,7.33,7.249,7.17,7.054,7.016,6.906,6.87,6.763,6.694,6.593,6.528,6.463,6.4,6.369,6.308,6.248,6.189,6.103,6.019,5.937,5.884,5.831,5.806,5.806,5.806,5.831,5.831,5.884,5.91,5.91,5.91,5.91,5.937,5.937,5.937,5.937,5.91,5.884,5.884,5.831,5.755,5.656,5.631,5.56,5.536,5.513,5.49,5.444,5.444,5.444,5.422,5.422,5.444,5.444,5.49,5.536,5.583,5.656,5.806,5.831,5.91,6.019,6.131,6.16,6.248,6.278,6.339,6.369,6.463,6.593,6.763,6.87,6.942,7.054,7.131,7.131,7.209,7.249,7.289,7.289,7.33,7.33,7.371,7.371,7.413,7.413,7.455,7.541,7.628,7.718,7.857,8.099,8.252,8.357,8.465,8.52,8.689,8.747,8.865,8.926,8.987,9.049,9.112,9.24,9.372,9.577,9.94,10.413,10.755,11.119,11.214,11.409,11.409,11.509,11.611,11.715,11.715,11.928,11.928,12.037,12.262,12.496,12.739,12.991,13.389,13.811,14.108,14.418,14.579,14.91,14.91,14.91,14.91,14.91,14.91,14.91,14.579,14.91,14.579,14.579,14.91,14.418,14.579,14.91,14.91,14.91,14.91,14.91,14.91,14.91,15.081,15.081,15.081,15.081,15.081,15.081,15.257,15.257,15.257,15.257,15.081,15.081,15.081,14.91,14.91,14.579,14.579,14.418,14.108,14.108,14.108,13.958,13.958,13.958,13.958,13.958,13.958,13.811,13.811,13.527,13.389,13.121,13.121,12.991,12.739,12.616,12.616,12.496,12.616,12.616,12.739,12.991,13.389,13.527,13.958,14.108,14.579,14.579,14.91,14.91,15.081,15.081,15.081,15.081,14.91,14.91,14.579,14.579,14.418,14.108,14.108,13.958,13.958,13.958,13.958,13.958,14.108,14.108,13.958,13.958,14.108,14.418,14.418,14.579,14.91,14.91,15.257,15.436,15.436,15.62,15.62,15.436,15.436,15.436,15.436,15.257,15.081,15.081,15.081,14.91,14.91,14.579,14.108,13.958,13.958,13.811,13.389,12.991,12.616,12.378,12.262,12.149,12.037,11.928,11.715,11.509,11.311,11.026,10.755,10.413,9.865,9.372,9.112,8.987,8.689,8.252,7.628,7.455,7.33,7.17,6.942,6.798,6.56,6.463,6.369,6.308,6.278,6.248,6.189,6.131,6.103,6.103,6.103,6.103,6.103,6.103,6.103,6.131,6.16,6.189,6.189,6.218,6.218,6.248,6.248,6.248,6.278,6.278,6.278,6.278,6.278,6.308,6.339,6.369,6.369,6.369,6.4,6.4,6.4,6.4,6.4,6.4,6.369,6.308,6.278,6.248,6.218,6.16,6.103,6.019,5.91,5.73,5.656,5.536,5.444,5.334
0,0,0,0,0,2.871,2.884,2.896,2.916,2.922,2.922,2.942,2.969,2.989,3.009,3.016,3.023,3.03,3.03,3.037,3.037,3.044,3.051,0,3.058,0,0,0,0,0,0,0,0,0,0,2.079,2.083,2.083,2.086,2.089,2.096,2.099,2.103,2.109,2.113,2.123,2.133,2.151,2.162,2.169,2.187,2.194,2.205,2.209,2.213,2.216,2.224,2.224,2.228,2.228,2.231,2.231,2.235,2.235,2.239,2.247,2.247,2.251,2.258,2.262,2.274,2.282,2.29,2.302,2.322,2.335,2.347,2.356,2.377,2.403,2.434,2.448,2.457,2.466,2.471,2.476,2.476,2.48,2.48,2.485,2.485,2.49,2.494,2.499,2.504,2.514,2.528,2.558,2.578,2.603,2.614,2.624,2.629,2.635,2.64,2.64,2.64,2.645,2.645,2.645,2.645,2.651,2.656,2.661,2.661,2.667,2.678,2.683,2.705,2.722,2.745,2.768,2.786,2.804,2.816,2.822,2.834,2.84,2.846,2.846,2.852,2.859,2.871,2.877,2.896,2.903,2.922,2.942,2.962,2.982,2.996,3.002,3.009,3.009,3.016,3.016,3.016,3.009,3.002,3.002,2.996,2.989,2.989,2.989,2.982,2.969,2.969,2.962,2.969,2.969,2.982,2.989,2.996,3.002,3.016,3.023,3.03,3.037,3.037,3.051,3.066,3.095,3.146,3.2,3.248,3.272,3.297,3.313,3.347,3.373,3.399,3.408,3.435,3.462,3.471,3.499,3.518,3.537,3.556,3.556,3.565,3.565,3.575,0,0,7.455,7.455,7.455,7.413,7.413,7.371,7.371,7.371,7.289,7.209,7.17,7.054,6.942,6.942,6.87,6.763,6.66,6.56,6.495,6.4,6.369,6.308,6.248,6.218,6.131,6.074,5.937,5.884,5.831,5.831,5.806,5.831,5.831,5.831,5.884,5.91,5.91,5.937,5.937,5.991,5.991,6.019,5.991,5.937,5.937,5.91,5.884,5.806,5.73,5.656,5.607,5.56,5.536,5.513,5.49,5.467,5.444,5.444,5.444,5.467,5.467,5.513,5.536,5.607,5.68,5.806,5.884,5.937,6.019,6.131,6.189,6.248,6.278,6.339,6.369,6.463,6.593,6.763,6.87,6.942,7.016,7.054,7.131,7.17,7.209,7.249,7.249,7.289,7.289,7.33,7.371,7.413,7.413,7.455,7.541,7.584,7.718,7.857,8.099,8.15,8.357,8.465,8.52,8.689,8.747,8.865,8.926,8.987,9.049,9.112,9.24,9.372,9.577,9.865,10.331,10.667,11.026,11.214,11.311,11.409,11.509,11.611,11.715,11.821,11.928,11.928,12.149,12.378,12.616,12.991,13.121,13.527,13.958,14.418,14.579,14.91,15.081,15.257,15.257,15.257,15.257,15.081,15.081,15.081,15.081,15.081,15.257,15.081,15.257,15.257,15.257,15.257,15.436,15.436,15.436,15.436,15.436,15.436,15.436,15.436,15.436,15.436,15.436,15.436,15.436,15.436,15.436,15.436,15.257,15.257,15.257,15.081,14.91,14.91,14.579,14.579,14.418,14.418,14.418,14.418,14.418,14.418,14.418,14.418,14.108,14.108,14.108,13.958,13.958,13.811,13.527,13.121,13.121,12.991,12.991,12.991,12.991,13.121,13.389,13.527,13.811,14.108,14.418,14.579,15.081,15.081,15.081,15.257,15.257,15.257,15.257,15.257,15.081,15.081,15.081,14.91,14.91,14.91,14.579,14.579,14.579,14.579,14.579,14.91,14.91,14.91,14.91,14.91,15.081,15.257,15.436,15.436,15.62,15.808,15.808,16.001,16.001,15.808,15.62,15.62,15.62,15.62,15.436,15.436,15.436,15.257,15.257,15.081,14.91,14.418,14.418,14.108,13.958,13.527,13.121,12.739,12.496,12.262,12.149,12.037,11.928,11.715,11.509,11.311,11.119,10.755,10.413,9.94,9.439,9.175,9.049,8.806,8.357,7.764,7.498,7.371,7.209,7.016,6.798,6.528,6.432,6.339,6.278,6.248,6.218,6.16,6.131,6.103,6.074,6.074,6.074,6.074,6.074,6.074,6.103,6.131,6.131,6.16,6.189,6.189,6.218,6.248,6.248,6.248,6.278,6.278,6.278,6.278,6.308,6.339,6.369,6.369,6.369,6.4,6.4,6.432,6.432,6.432,6.432,6.4,6.369,6.339,6.308,6.278,6.248,6.248,6.189,6.074,5.884,5.806,5.607,5.513,5.4
0,0,0,0,2.989,2.982,2.996,3.009,3.016,3.016,3.023,3.023,3.023,3.03,3.03,3.03,3.03,3.03,3.03,3.037,3.037,3.037,3.044,3.051,3.051,3.051,0,0,0,0,0,0,0,0,0,2.079,2.083,2.083,2.086,2.089,2.093,2.096,2.103,2.106,2.113,2.116,2.127,2.133,2.144,2.154,2.169,2.187,2.198,2.205,2.209,2.213,2.216,2.224,2.224,2.228,2.228,2.228,2.231,2.231,2.235,2.243,2.247,2.251,2.258,2.262,2.274,2.282,2.298,2.31,2.322,2.335,2.347,2.356,2.377,2.403,2.425,2.448,2.457,2.466,2.471,2.476,2.476,2.48,2.48,2.485,2.485,2.49,2.494,2.499,2.504,2.514,2.528,2.553,2.573,2.593,2.614,2.619,2.629,2.635,2.64,2.64,2.64,2.645,2.645,2.645,2.645,2.656,2.656,2.661,2.661,2.672,2.678,2.689,2.705,2.728,2.739,2.762,2.78,2.798,2.81,2.822,2.828,2.834,2.84,2.846,2.846,2.852,2.859,2.871,2.884,2.903,2.922,2.942,2.962,2.982,2.996,3.002,3.009,3.009,3.009,3.009,3.009,3.002,3.002,2.989,2.989,2.982,2.982,2.982,2.969,2.969,2.962,2.962,2.969,2.982,2.989,2.989,3.002,3.009,3.016,3.023,3.03,3.037,3.037,3.051,3.066,3.087,3.139,3.177,3.232,3.264,3.28,3.305,3.33,3.356,3.382,3.408,3.426,3.444,3.471,3.49,3.508,3.527,3.546,3.556,3.565,3.565,3.585,0,0,7.413,7.413,7.413,7.413,7.371,7.371,7.371,7.33,7.289,7.249,7.17,7.054,7.016,6.942,6.87,6.798,6.66,6.56,6.495,6.432,6.369,6.308,6.278,6.218,6.16,6.103,5.991,5.91,5.884,5.831,5.831,5.831,5.884,5.884,5.91,5.937,5.937,5.991,5.991,6.019,6.019,6.074,6.074,6.019,5.991,5.991,5.937,5.884,5.755,5.68,5.656,5.607,5.56,5.536,5.513,5.513,5.49,5.49,5.467,5.49,5.49,5.536,5.583,5.631,5.73,5.831,5.884,5.937,6.074,6.16,6.189,6.248,6.278,6.339,6.4,6.463,6.56,6.763,6.87,6.906,7.016,7.054,7.054,7.131,7.209,7.209,7.209,7.249,7.289,7.33,7.371,7.371,7.413,7.455,7.541,7.584,7.718,7.81,8.001,8.15,8.357,8.465,8.52,8.689,8.747,8.865,8.865,8.987,8.987,9.112,9.24,9.306,9.508,9.719,10.171,10.667,10.934,11.119,11.214,11.311,11.509,11.611,11.715,11.928,12.037,12.037,12.262,12.496,12.739,13.121,13.389,13.811,14.108,14.579,14.91,15.257,15.436,15.436,15.436,15.62,15.436,15.436,15.436,15.436,15.436,15.436,15.62,15.62,15.62,15.808,15.808,15.808,15.808,15.808,16.001,16.001,16.001,16.001,16.001,15.808,15.808,15.808,15.808,15.808,15.808,15.808,15.62,15.62,15.62,15.436,15.436,15.257,15.081,15.081,14.91,14.91,14.91,14.579,14.579,14.579,14.579,14.91,14.91,14.91,14.579,14.579,14.579,14.418,14.418,14.108,13.958,13.958,13.811,13.527,13.389,13.389,13.389,13.527,13.527,13.811,13.958,14.418,14.579,14.91,15.081,15.081,15.257,15.257,15.436,15.436,15.436,15.436,15.436,15.436,15.436,15.257,15.257,15.257,15.257,15.257,15.257,15.257,15.436,15.436,15.62,15.436,15.436,15.62,15.62,16.001,16.001,16.001,16.001,16.001,16.199,16.001,16.001,16.001,16.001,15.808,15.808,15.808,15.62,15.62,15.436,15.436,15.436,15.257,15.081,14.91,14.579,14.418,14.108,13.811,13.389,12.991,12.496,12.378,12.262,12.037,11.928,11.715,11.509,11.311,11.026,10.755,10.413,9.94,9.508,9.306,9.112,8.987,8.632,7.81,7.541,7.371,7.209,7.016,6.763,6.528,6.432,6.339,6.278,6.248,6.189,6.131,6.074,6.019,6.074,6.019,6.019,6.019,6.019,6.019,6.074,6.103,6.103,6.131,6.16,6.189,6.189,6.218,6.248,6.248,6.248,6.278,6.278,6.278,6.308,6.308,6.369,6.369,6.369,6.4,6.4,6.432,6.432,6.432,6.432,6.4,6.4,6.369,6.339,6.308,6.308,6.278,6.248,6.189,6.019,5.91,5.755,5.56,5.467
0,0,0,0,3.051,3.051,3.051,0,0,0,3.058,3.051,3.051,3.037,3.037,3.03,3.03,3.03,3.03,3.03,3.03,3.03,3.037,3.037,3.044,0,0,0,0,0,0,0,0,2.079,2.083,2.083,2.083,2.083,2.086,2.083,2.089,2.093,2.099,2.099,2.106,2.113,2.116,2.123,2.13,2.14,2.154,2.169,2.187,2.194,2.205,2.209,2.213,2.216,2.22,2.224,2.224,2.228,2.228,2.228,2.235,2.243,2.243,2.251,2.262,2.27,2.274,2.286,2.298,2.314,2.326,2.335,2.343,2.356,2.373,2.394,2.421,2.439,2.452,2.462,2.471,2.476,2.476,2.48,2.48,2.485,2.485,2.49,2.494,2.499,2.499,2.514,2.523,2.543,2.568,2.588,2.609,2.619,2.629,2.635,2.64,2.64,2.64,2.645,2.645,2.645,2.651,2.656,2.656,2.661,2.661,2.667,2.678,2.683,2.705,2.722,2.728,2.751,2.768,2.792,2.804,2.816,2.822,2.828,2.834,2.84,2.846,2.846,2.859,2.865,2.877,2.896,2.916,2.942,2.962,2.982,2.996,3.002,3.009,3.009,3.009,3.009,3.002,2.996,2.989,2.982,2.969,2.969,2.962,2.962,2.962,2.948,2.962,2.962,2.969,2.969,2.989,2.996,3.002,3.009,3.016,3.023,3.03,3.037,3.037,3.051,3.058,3.087,3.124,3.169,3.224,3.256,3.272,3.297,3.313,3.339,3.356,3.382,3.408,3.435,3.462,3.49,3.508,3.527,3.546,3.556,3.565,3.565,3.575,0,0,7.371,7.371,7.371,7.371,7.371,7.33,7.371,7.33,7.289,7.209,7.17,7.131,7.054,6.942,6.906,6.798,6.694,6.593,6.528,6.432,6.4,6.339,6.278,6.248,6.189,6.131,6.019,5.991,5.91,5.91,5.884,5.884,5.91,5.91,5.937,5.991,5.991,6.019,6.074,6.074,6.103,6.103,6.103,6.103,6.074,6.019,5.991,5.91,5.831,5.755,5.68,5.656,5.631,5.607,5.56,5.536,5.536,5.513,5.513,5.513,5.513,5.56,5.607,5.656,5.755,5.884,5.91,5.991,6.074,6.16,6.189,6.248,6.308,6.369,6.4,6.495,6.56,6.763,6.798,6.906,6.942,7.016,7.054,7.131,7.17,7.209,7.209,7.249,7.249,7.289,7.371,7.371,7.413,7.455,7.541,7.584,7.718,7.81,8.001,8.252,8.357,8.465,8.52,8.689,8.747,8.865,8.865,8.926,8.987,9.049,9.175,9.306,9.439,9.648,9.94,10.497,10.755,11.026,11.119,11.311,11.509,11.611,11.928,12.037,12.149,12.262,12.496,12.739,13.121,13.389,13.527,13.811,14.108,14.91,15.081,15.436,15.62,15.62,15.62,15.808,15.808,15.808,15.808,15.808,15.808,16.001,16.001,16.001,16.001,16.199,16.199,16.199,16.199,16.199,16.199,16.199,16.199,16.199,16.199,16.001,16.001,16.001,16.001,16.001,16.001,16.001,16.001,15.808,15.808,15.62,15.62,15.62,15.436,15.257,15.257,15.257,15.081,15.081,15.081,15.081,15.081,15.081,15.257,15.257,15.257,15.257,15.257,15.081,15.081,14.91,14.579,14.418,14.108,13.958,13.811,13.811,13.811,13.811,13.958,13.958,14.108,14.418,14.579,14.91,15.081,15.081,15.257,15.436,15.62,15.62,15.62,15.808,15.62,15.62,15.808,15.808,15.808,15.808,15.62,15.808,15.808,16.001,16.001,16.001,16.001,16.001,16.001,16.001,16.199,16.199,16.199,16.199,16.199,16.199,16.199,16.199,16.199,16.199,16.001,16.001,16.001,15.808,15.808,15.62,15.62,15.436,15.436,15.436,15.257,15.081,14.579,14.418,14.108,13.958,13.527,12.991,12.616,12.378,12.262,12.037,11.928,11.715,11.509,11.311,11.026,10.755,10.497,10.093,9.577,9.306,9.175,8.987,8.632,7.81,7.498,7.371,7.17,7.016,6.694,6.528,6.4,6.308,6.278,6.248,6.189,6.131,6.074,5.991,6.019,5.991,6.019,6.019,6.019,6.019,6.019,6.074,6.074,6.103,6.131,6.131,6.16,6.189,6.218,6.248,6.248,6.278,6.278,6.278,6.278,6.308,6.339,6.369,6.369,6.369,6.4,6.4,6.432,6.432,6.463,6.432,6.4,6.4,6.369,6.369,6.369,6.339,6.308,6.248,6.16,6.074,5.91,5.68,5.513
0,0,0,0,0,3.095,0,0,0,0,3.08,3.066,3.051,3.044,3.03,3.023,3.023,3.023,3.023,3.023,3.023,3.023,3.023,3.03,3.037,0,0,0,0,0,0,0,0,2.076,2.079,2.083,2.083,2.083,2.083,2.083,2.086,2.093,2.096,0,2.103,2.106,2.113,2.113,2.123,2.13,2.144,2.162,2.176,2.187,2.198,2.205,2.213,2.216,2.216,2.22,2.224,2.224,2.228,2.228,2.231,2.239,2.247,2.251,2.262,2.27,2.282,2.29,2.31,2.318,2.331,2.339,2.347,2.356,2.368,2.39,2.416,2.434,2.448,2.462,2.471,2.476,2.476,2.48,2.48,2.485,2.485,2.49,2.494,2.499,2.499,2.514,2.523,2.543,2.568,2.588,2.603,2.614,2.624,2.635,2.635,2.64,2.64,2.645,2.645,2.645,2.651,2.656,2.656,2.661,2.661,2.667,2.678,2.689,2.705,2.711,2.722,2.745,2.762,2.78,2.792,2.81,2.816,2.822,2.828,2.84,2.84,2.846,2.846,2.859,2.871,2.884,2.903,2.935,2.948,2.982,2.996,3.002,3.009,3.009,3.002,3.002,2.996,2.989,2.982,2.969,2.948,2.948,2.942,2.942,2.942,2.948,2.948,2.948,2.969,2.982,2.989,2.996,3.002,3.016,3.023,3.023,3.03,3.037,3.037,3.051,3.058,3.08,3.117,3.162,3.2,3.248,3.264,3.28,3.305,3.322,3.339,3.356,3.382,3.408,3.444,3.462,3.499,3.518,3.546,3.556,3.556,3.565,3.565,3.575,0,0,7.371,7.371,7.371,7.33,7.33,7.33,7.289,7.289,7.209,7.17,7.131,7.054,7.016,6.906,6.798,6.694,6.593,6.528,6.463,6.4,6.369,6.308,6.248,6.248,6.16,6.103,6.019,5.991,5.937,5.91,5.937,5.937,5.937,5.991,5.991,6.019,6.074,6.103,6.103,6.131,6.131,6.131,6.131,6.103,6.103,6.019,5.991,5.91,5.831,5.806,5.73,5.68,5.656,5.631,5.583,5.56,5.56,5.536,5.536,5.536,5.583,5.631,5.68,5.755,5.884,5.91,5.991,6.103,6.16,6.189,6.248,6.308,6.369,6.4,6.463,6.56,6.694,6.798,6.906,6.942,7.016,7.054,7.131,7.17,7.17,7.17,7.209,7.249,7.289,7.33,7.371,7.371,7.455,7.541,7.584,7.673,7.81,8.001,8.252,8.357,8.465,8.52,8.632,8.747,8.806,8.865,8.926,8.987,9.049,9.112,9.24,9.372,9.508,9.865,10.331,10.667,10.934,11.119,11.311,11.509,11.715,11.928,12.149,12.378,12.496,12.739,13.121,13.389,13.527,13.811,13.958,14.418,14.91,15.081,15.436,15.62,15.808,16.001,16.001,16.001,16.001,16.001,16.001,16.199,16.199,16.199,16.199,16.401,16.401,16.401,16.609,16.609,16.609,16.609,16.401,16.401,16.401,16.401,16.199,16.199,16.199,16.001,16.199,16.001,16.001,16.001,16.001,16.001,16.001,16.001,15.808,15.808,15.62,15.62,15.436,15.436,15.436,15.436,15.436,15.436,15.436,15.436,15.62,15.62,15.62,15.62,15.62,15.436,15.436,15.257,15.081,14.579,14.418,14.418,14.108,14.108,14.108,14.108,14.108,14.418,14.579,14.579,14.91,15.081,15.257,15.257,15.436,15.62,15.808,15.808,16.001,16.001,16.001,16.001,16.001,16.001,16.001,16.001,16.199,16.199,16.199,16.401,16.401,16.401,16.199,16.401,16.401,16.401,16.401,16.401,16.401,16.401,16.401,16.401,16.401,16.199,16.199,16.199,16.001,16.001,16.001,15.808,15.808,15.62,15.62,15.62,15.62,15.436,15.257,15.081,14.579,14.418,14.108,13.527,13.121,12.616,12.378,12.262,12.037,11.928,11.715,11.509,11.311,11.026,10.755,10.497,10.093,9.577,9.372,9.24,9.049,8.689,7.857,7.541,0,7.17,6.942,6.694,6.528,6.4,6.308,6.278,6.248,6.189,6.131,6.074,5.991,5.991,5.991,5.991,5.991,5.991,5.991,5.991,6.019,6.074,6.074,6.103,6.131,6.131,6.16,6.218,6.248,6.248,6.248,6.278,6.278,6.278,6.308,6.339,6.369,6.369,6.369,6.4,6.4,6.432,6.432,6.463,6.463,6.463,6.432,6.4,6.4,6.4,6.369,6.369,6.308,6.248,6.189,6.019,5.831,5.56
0,0,0,0,0,0,0,0,0,0,3.08,3.066,3.044,3.03,3.023,3.016,3.002,2.989,2.982,2.969,2.962,2.969,2.982,2.982,2.989,0,0,0,0,0,0,0,0,2.076,0,2.076,2.079,2.079,2.079,2.083,2.083,0,0,0,2.099,2.103,2.109,2.113,2.116,2.127,2.133,2.151,2.169,2.18,2.194,2.205,2.209,2.213,2.216,2.216,2.224,2.224,2.224,2.228,2.228,2.235,2.247,2.251,2.262,2.274,2.286,2.298,2.31,2.322,2.331,2.339,2.343,2.351,2.364,2.377,2.403,2.421,2.439,2.457,2.462,2.476,2.476,2.48,2.48,2.485,2.485,2.49,2.494,2.499,2.504,2.514,2.523,2.543,2.568,2.578,2.603,2.614,2.624,2.629,2.635,2.64,2.64,2.645,2.645,2.651,2.656,2.656,2.656,2.661,2.667,2.672,2.678,2.683,2.694,2.711,2.711,2.739,2.751,2.768,2.786,2.804,2.816,2.822,2.828,2.834,2.84,2.84,2.846,2.859,2.871,2.884,2.903,2.935,2.948,2.969,2.989,3.002,3.002,3.002,2.996,2.989,2.989,2.969,2.962,2.948,2.935,2.935,2.935,2.935,2.935,2.942,2.942,2.948,2.969,2.982,2.996,3.002,3.009,3.023,3.023,3.023,3.03,3.037,3.044,3.051,3.058,3.08,3.102,3.146,3.192,3.224,3.256,3.272,3.297,3.305,3.322,3.339,3.356,3.399,3.426,3.444,3.471,3.508,3.537,3.546,3.556,3.556,3.565,3.565,0,7.371,7.371,7.371,7.33,7.33,7.289,7.289,7.289,7.249,7.209,7.17,7.131,7.054,7.016,6.942,6.87,6.763,6.66,6.528,6.463,6.4,6.369,6.308,6.278,6.248,6.218,6.16,6.103,6.019,5.991,5.991,5.991,5.991,5.991,6.019,6.019,6.074,6.103,6.131,6.131,6.16,6.16,6.16,6.131,6.131,6.103,6.074,6.019,5.937,5.91,5.831,5.806,5.73,5.68,5.656,5.631,5.607,5.583,5.583,5.56,5.56,5.607,5.656,5.73,5.806,5.884,5.937,6.019,6.103,6.189,6.218,6.248,6.308,6.369,6.4,6.463,6.56,6.694,6.798,6.87,6.906,6.942,7.016,7.054,7.131,7.17,7.17,7.209,7.249,7.289,7.33,7.371,7.371,7.455,7.498,7.584,7.673,7.81,7.952,8.15,8.304,8.465,8.52,8.632,8.747,8.806,8.865,8.865,8.987,9.049,9.112,9.24,9.306,9.439,9.719,10.171,10.497,10.755,11.119,11.311,11.509,11.715,12.037,12.378,12.616,12.991,13.121,13.389,13.811,13.958,13.958,14.108,14.418,14.91,15.257,15.62,16.001,16.001,16.199,16.199,16.199,16.199,16.401,16.401,16.401,16.401,16.401,16.609,16.822,16.822,16.822,17.04,17.04,17.04,16.822,16.822,16.822,16.822,16.609,16.401,16.401,16.199,16.199,16.199,16.199,16.199,16.199,16.199,16.199,16.199,16.001,16.001,16.001,16.001,16.001,15.808,15.808,15.808,15.808,15.808,15.808,15.808,15.808,16.001,16.001,16.001,16.001,16.001,15.808,15.808,15.62,15.436,15.257,15.081,14.91,14.579,14.579,14.579,14.579,14.579,14.579,14.579,14.91,15.081,15.257,15.436,15.436,15.62,15.808,16.001,16.001,16.199,16.199,16.199,16.199,16.199,16.199,16.401,16.401,16.401,16.401,16.609,16.609,16.822,16.822,16.822,16.609,16.822,16.822,16.822,16.822,16.822,16.822,16.609,16.609,16.401,16.401,16.401,16.199,16.199,16.001,16.001,16.001,16.001,15.808,15.808,15.808,15.808,15.62,15.257,15.257,14.91,14.579,14.108,13.811,13.121,12.616,12.378,12.262,12.037,11.928,11.611,11.509,11.214,10.934,10.755,10.413,9.94,9.648,9.372,9.24,9.049,8.632,7.81,7.498,7.371,7.131,6.942,6.694,6.495,6.4,6.339,6.308,6.278,6.218,6.131,6.074,5.991,5.991,5.937,5.937,5.937,5.937,5.937,5.937,5.991,6.019,6.019,6.074,6.103,6.131,6.16,6.189,6.248,6.248,6.278,6.278,6.278,6.308,6.339,6.369,6.369,6.369,6.369,6.4,6.4,6.432,6.432,6.463,6.432,6.432,6.432,6.432,6.432,6.432,6.432,6.4,6.369,6.278,6.278,6.189,6.019,5.631
0,0,0,0,0,0,3.177,3.162,3.139,3.102,3.08,3.051,3.03,3.023,3.002,2.969,2.942,2.922,2.903,2.884,2.877,2.877,2.871,2.865,2.852,0,0,0,0,0,0,0,0,2.076,2.079,2.079,2.083,2.079,2.083,2.083,2.083,2.089,0,2.096,2.099,2.103,2.109,2.109,2.116,2.123,2.133,2.144,2.165,2.176,2.194,2.201,2.209,2.213,2.213,2.216,2.22,2.22,2.224,2.224,2.228,2.235,2.243,2.258,2.262,2.274,2.29,2.302,2.318,2.326,2.335,2.339,2.343,2.351,2.36,2.373,2.394,2.416,2.434,2.448,2.462,2.471,2.476,2.48,2.48,2.485,2.485,2.494,2.494,2.499,2.504,2.514,2.523,2.543,2.568,2.578,2.603,2.614,2.624,2.629,2.635,2.64,2.645,2.645,2.651,2.651,2.656,2.656,2.661,2.661,2.672,2.672,2.678,2.683,2.694,2.705,2.711,2.728,2.745,2.762,2.78,2.798,2.81,2.816,2.822,2.828,2.834,2.84,2.846,2.852,2.865,2.884,2.896,2.922,2.942,2.969,2.989,2.996,2.996,2.989,2.989,2.982,2.969,2.962,2.948,2.935,2.922,2.916,2.916,2.916,2.922,2.935,2.942,2.948,2.969,2.982,2.996,3.009,3.016,3.023,3.03,3.03,3.037,3.037,3.051,3.051,3.058,3.08,3.102,3.139,3.177,3.216,3.24,3.264,3.272,3.288,3.305,3.313,3.339,3.356,3.399,3.426,3.462,3.49,3.527,3.546,3.556,3.556,3.556,3.565,7.289,7.371,7.33,7.33,7.33,7.289,7.289,7.289,7.289,7.209,7.17,7.131,7.131,7.054,7.016,6.942,6.87,6.694,6.66,6.56,6.495,6.4,6.369,6.339,6.278,6.248,6.248,6.189,6.16,6.103,6.074,6.019,6.074,6.019,6.074,6.074,6.074,6.103,6.131,6.16,6.16,6.189,6.16,6.16,6.16,6.16,6.103,6.103,6.074,5.991,5.937,5.884,5.884,5.806,5.755,5.73,5.68,5.656,5.631,5.607,5.583,5.583,5.631,5.68,5.755,5.806,5.91,5.937,6.019,6.103,6.16,6.218,6.248,6.278,6.369,6.4,6.463,6.56,6.694,6.798,6.87,6.906,6.942,7.016,7.054,7.131,7.17,7.17,7.209,7.249,7.33,7.371,7.371,7.371,7.455,7.498,7.584,7.673,7.81,8.001,8.15,8.304,8.465,8.52,8.632,8.689,8.806,8.806,8.865,8.926,8.987,9.049,9.175,9.306,9.372,9.648,10.093,10.497,10.934,11.119,11.409,11.611,11.821,12.149,12.616,13.121,13.389,13.811,13.958,14.108,14.418,14.418,14.418,14.579,15.081,15.436,15.808,16.001,16.199,16.199,16.401,16.401,16.401,16.609,16.609,16.822,16.822,16.822,17.04,17.04,17.264,17.264,17.264,17.494,17.264,17.264,17.04,17.04,17.04,16.822,16.609,16.401,16.401,16.199,16.199,16.199,16.199,16.199,16.199,16.199,16.199,16.199,16.199,16.199,16.199,16.199,16.199,16.001,16.001,16.001,16.001,16.001,16.001,16.001,16.199,16.199,16.199,16.199,16.001,16.001,16.001,16.001,15.808,15.62,15.436,15.436,15.081,15.081,15.081,15.081,15.081,15.081,15.081,15.257,15.257,15.436,15.62,15.808,16.001,16.199,16.199,16.401,16.401,16.401,16.401,16.401,16.401,16.609,16.609,16.609,16.822,16.822,16.822,17.04,17.04,17.04,17.04,17.04,17.04,17.04,17.04,17.04,17.04,16.822,16.822,16.822,16.609,16.609,16.401,16.401,16.199,16.199,16.199,16.001,16.001,16.001,16.001,16.001,16.001,15.808,15.62,15.436,15.081,14.579,14.108,13.811,13.121,12.616,12.378,12.262,12.037,11.821,11.611,11.509,11.214,10.934,10.667,10.413,9.94,9.577,9.372,9.24,8.987,8.52,7.764,0,7.371,7.17,7.016,6.763,6.528,6.432,6.339,6.308,6.278,6.218,6.131,6.019,5.991,5.937,5.91,5.937,5.91,5.91,5.91,5.91,5.937,5.937,5.991,6.019,6.103,6.103,6.16,6.189,6.248,6.248,6.278,6.278,6.308,6.308,6.369,6.369,6.4,6.4,6.4,6.4,6.4,6.432,6.432,6.432,6.432,6.432,6.432,6.432,6.463,6.432,6.463,6.463,6.4,6.369,6.308,6.248,6.189,5.68
0,0,0,0,0,3.216,3.192,3.177,3.117,3.087,3.058,3.037,3.016,2.989,2.948,2.916,2.877,2.865,2.846,2.84,2.834,2.828,2.822,2.816,2.798,0,0,0,0,0,0,0,0,2.079,0,0,2.079,2.079,2.079,2.079,2.083,2.089,2.093,2.099,2.099,2.103,2.109,2.113,2.116,2.127,2.133,2.151,2.165,2.18,2.19,2.201,2.205,2.209,2.213,2.216,2.216,2.216,2.224,2.224,2.228,2.231,2.243,2.251,2.27,2.282,2.298,2.31,2.322,2.331,2.335,2.339,2.343,2.351,2.36,2.373,2.381,2.403,2.421,2.439,2.457,2.466,2.476,2.476,2.48,2.485,2.485,2.494,2.494,2.499,2.504,2.514,2.523,2.543,2.568,2.588,2.603,2.614,2.624,2.635,2.635,2.64,2.645,2.651,2.656,2.656,2.656,2.661,2.661,2.667,2.672,2.678,2.683,2.683,2.694,2.705,2.711,2.728,2.739,2.762,2.78,2.792,2.804,2.816,2.822,2.828,2.834,2.84,2.846,2.852,2.865,2.877,2.896,2.916,2.935,2.948,2.969,2.982,2.989,2.982,2.969,2.962,2.948,2.942,2.935,2.916,2.903,2.896,2.896,2.903,2.916,2.922,2.935,2.948,2.969,2.989,3.009,3.016,3.023,3.03,3.037,3.037,3.044,3.051,3.051,3.058,3.066,3.08,3.095,3.124,3.162,3.192,3.224,3.248,3.264,3.28,3.288,3.297,3.313,3.339,3.373,3.399,3.435,3.471,3.518,3.537,3.546,3.556,3.556,3.556,0,7.289,7.33,7.289,7.249,7.249,7.249,7.209,7.209,7.17,7.131,7.054,7.054,7.016,7.016,6.906,6.87,6.763,6.66,6.56,6.495,6.432,6.4,6.339,6.308,6.278,6.248,6.248,6.189,6.16,6.131,6.103,6.103,6.103,6.103,6.103,6.131,6.131,6.131,6.16,6.16,6.16,6.16,6.189,6.16,6.131,6.131,6.103,6.074,6.019,5.991,5.91,5.91,5.831,5.831,5.806,5.755,5.68,5.656,5.631,5.607,5.607,5.656,5.68,5.755,5.806,5.91,5.991,6.074,6.103,6.16,6.189,6.248,6.278,6.339,6.4,6.463,6.56,6.694,6.798,6.87,6.906,6.942,7.016,7.054,7.131,7.17,7.17,7.209,7.249,7.33,7.371,7.371,7.413,7.455,7.498,7.541,7.628,7.764,7.952,8.099,8.304,8.465,8.52,8.632,8.689,8.747,8.806,8.865,8.926,8.987,9.049,9.175,9.306,9.439,9.648,10.171,10.497,10.934,11.119,11.509,11.611,11.821,12.262,12.991,13.527,13.811,14.108,14.418,14.579,14.91,14.91,14.91,15.081,15.257,15.62,16.001,16.199,16.199,16.401,16.401,16.822,16.822,16.822,17.04,17.04,17.04,17.264,17.264,17.494,17.974,17.731,17.974,17.974,17.731,17.731,17.494,17.264,17.04,16.822,16.822,16.609,16.401,16.401,16.401,16.401,16.401,16.401,16.401,16.401,16.401,16.401,16.401,16.401,16.401,16.401,16.401,16.199,16.199,16.199,16.199,16.199,16.199,16.199,16.199,16.199,16.199,16.199,16.199,16.199,16.001,16.001,16.001,15.808,15.62,15.62,15.436,15.436,15.436,15.436,15.257,15.436,15.436,15.436,15.62,15.808,16.001,16.001,16.199,16.401,16.401,16.609,16.822,16.822,16.822,16.822,16.822,16.822,16.822,16.822,17.04,17.04,17.04,17.04,17.04,17.04,17.04,17.04,17.04,17.264,17.264,17.04,17.04,17.04,17.04,17.04,16.822,16.822,16.401,16.401,16.401,16.199,16.199,16.199,16.199,16.001,16.001,16.001,16.001,15.808,15.808,15.62,15.257,14.91,14.418,13.958,13.389,12.739,12.496,12.262,12.037,11.821,11.611,11.409,11.214,10.934,10.667,10.413,9.94,9.577,9.306,9.24,8.987,0,0,7.498,7.371,7.17,7.016,6.763,6.56,6.432,6.369,6.308,6.278,6.218,6.131,6.019,5.991,5.937,5.91,5.91,5.91,5.91,5.91,5.91,5.91,5.937,5.991,6.019,6.103,6.131,6.16,6.218,6.248,6.278,6.278,6.278,6.308,6.339,6.369,6.4,6.4,6.4,6.4,6.432,6.463,6.463,6.463,6.463,6.463,6.463,6.463,6.463,6.463,6.463,6.495,6.495,6.432,6.4,6.369,6.308,6.248,5.73
0,0,0,0,0,0,3.192,3.162,3.095,3.073,3.051,3.023,2.982,2.935,2.896,2.865,2.846,2.828,2.822,2.816,2.804,2.786,2.768,2.751,2.722,0,0,0,0,0,0,0,0,2.079,0,2.076,2.076,2.076,2.079,2.079,2.083,2.089,2.096,2.099,2.103,2.106,2.113,2.116,2.123,2.133,2.144,2.154,2.165,2.18,2.19,2.198,2.205,2.209,2.213,2.213,2.216,2.216,2.22,2.22,2.224,2.231,2.239,2.251,2.27,2.282,2.298,2.314,2.326,2.335,2.339,2.343,2.343,2.351,2.36,2.368,2.381,2.394,2.416,2.434,2.452,2.466,2.471,2.476,2.48,2.48,2.485,2.494,2.494,2.499,2.504,2.514,2.523,2.543,2.558,2.578,2.603,2.614,2.624,2.635,2.64,2.64,2.645,2.651,2.656,2.656,2.661,2.661,2.667,2.672,2.678,2.683,2.689,2.689,2.705,2.705,2.711,2.728,2.745,2.751,2.78,2.792,2.804,2.816,2.822,2.828,2.828,2.84,2.84,2.846,2.859,2.871,2.884,2.903,2.922,2.942,2.962,2.969,2.969,2.962,2.948,2.942,2.935,2.922,2.903,2.896,2.884,2.884,2.884,2.896,2.903,2.922,2.942,2.962,2.982,3.002,3.016,3.023,3.03,3.037,3.037,3.051,3.051,3.051,3.058,3.066,3.073,3.08,3.102,3.124,3.162,3.192,3.216,3.232,3.256,3.264,3.272,3.288,3.305,3.322,3.347,3.373,3.408,3.462,3.499,3.527,3.546,3.546,3.546,3.556,0,7.33,7.33,7.289,7.249,7.249,7.209,7.209,7.209,7.17,7.131,7.054,7.054,7.016,6.942,6.906,6.87,6.763,6.66,6.56,6.495,6.432,6.4,6.369,6.308,6.308,6.278,6.248,6.248,6.218,6.189,6.189,6.16,6.131,6.131,6.16,6.131,6.16,6.16,6.189,6.16,6.16,6.16,6.16,6.131,6.131,6.131,6.103,6.074,6.019,5.991,5.937,5.937,5.91,5.91,5.831,5.806,5.755,5.73,5.68,5.631,5.631,5.68,5.73,5.755,5.831,5.91,5.991,6.074,6.131,6.16,6.189,6.248,6.278,6.339,6.4,6.463,6.56,6.694,6.798,6.87,6.906,6.942,7.016,7.054,7.131,7.17,7.17,7.249,7.289,7.33,7.371,7.371,7.413,7.455,7.541,7.584,7.673,7.81,7.952,8.099,8.304,8.465,8.52,8.632,8.747,8.806,8.806,8.926,8.987,9.049,9.112,9.24,9.372,9.508,9.719,10.331,10.667,11.026,11.214,11.509,11.715,11.928,12.496,13.121,13.811,14.108,14.579,14.91,15.081,15.081,15.081,15.257,15.257,15.436,16.001,16.001,16.199,16.401,16.609,16.822,16.822,17.04,17.04,17.04,17.264,17.494,17.494,17.731,17.974,17.974,17.974,17.974,17.974,17.974,17.731,17.494,17.264,17.04,17.04,16.822,16.609,16.401,16.401,16.401,16.401,16.401,16.401,16.609,16.609,16.822,16.822,16.822,16.822,16.822,16.822,16.609,16.609,16.609,16.609,16.609,16.609,16.401,16.401,16.401,16.401,16.401,16.401,16.199,16.199,16.001,16.001,16.001,16.001,15.808,15.62,15.62,15.62,15.62,15.62,15.62,15.62,15.808,16.001,16.001,16.199,16.199,16.401,16.401,16.609,16.822,17.04,17.04,17.04,17.04,17.04,17.04,17.04,17.04,17.04,17.04,17.264,17.264,17.264,17.494,17.494,17.494,17.494,17.494,17.494,17.494,17.494,17.494,17.264,17.264,17.04,17.04,16.822,16.822,16.609,16.401,16.401,16.401,16.199,16.199,16.199,16.001,16.001,16.199,16.001,16.001,15.808,15.62,15.257,14.91,14.418,13.527,13.121,12.616,12.262,12.037,11.821,11.611,11.409,11.119,10.934,10.667,10.331,9.94,9.577,9.306,9.112,8.926,0,7.673,7.455,7.371,7.131,6.942,6.763,6.56,6.432,6.369,6.308,6.278,6.218,6.131,6.074,5.991,5.991,5.91,5.91,5.91,5.91,5.91,5.91,5.91,5.991,5.991,6.074,6.103,6.131,6.189,6.218,6.248,6.278,6.278,6.308,6.339,6.369,6.4,6.4,6.463,6.432,6.463,6.463,6.495,6.495,6.495,6.495,6.463,6.463,6.463,6.463,6.495,6.495,6.495,6.495,6.463,6.432,6.4,6.369,6.308,0
0,0,0,0,0,0,0,3.169,3.095,3.073,3.044,3.009,2.948,2.896,2.859,2.84,2.822,2.81,0,2.768,2.751,2.728,2.705,2.689,2.667,0,0,0,0,0,0,0,0,2.103,2.086,2.07,2.076,2.07,2.076,2.083,2.086,2.089,2.096,2.099,2.106,2.109,2.116,2.123,2.13,2.144,2.154,2.165,2.176,2.187,2.198,2.201,2.205,2.209,2.213,2.213,2.213,2.216,2.216,2.22,2.224,2.231,2.239,2.251,2.27,2.286,2.302,2.318,2.331,2.335,2.339,2.343,2.347,2.351,2.36,2.368,2.377,2.394,2.416,2.425,2.448,2.462,2.471,2.476,2.48,2.48,2.485,2.49,2.494,2.494,2.499,2.514,2.523,2.538,2.553,2.573,2.593,2.609,2.624,2.629,2.64,2.645,2.645,2.656,2.656,2.661,2.661,2.667,2.672,2.678,2.683,2.689,2.694,2.705,2.705,2.722,2.722,2.739,2.751,2.762,2.78,2.792,2.804,2.816,2.816,2.828,2.828,2.834,2.84,2.846,2.859,2.871,2.884,2.896,2.916,2.935,2.948,2.948,2.962,2.942,2.935,2.922,2.916,2.903,2.884,2.877,2.871,2.877,2.877,2.896,2.903,2.922,2.942,2.969,2.996,3.009,3.023,3.03,3.037,3.051,3.051,3.058,3.058,3.066,3.066,3.066,3.08,3.087,3.102,3.124,3.146,3.177,3.2,3.216,3.24,3.256,3.264,3.28,3.297,3.305,3.33,3.347,3.399,3.435,3.49,3.518,3.537,3.546,3.546,3.556,0,7.33,7.33,7.289,7.249,7.249,7.209,7.209,7.209,7.17,7.131,7.054,7.054,7.054,7.016,6.906,6.87,6.763,6.66,6.56,6.495,6.432,6.4,6.369,6.339,6.308,6.308,6.278,6.248,6.248,6.248,6.218,6.189,6.189,6.189,6.16,6.189,6.189,6.189,6.189,6.189,6.189,6.189,6.16,6.16,6.16,6.16,6.131,6.103,6.074,6.074,6.019,5.991,5.991,5.991,5.91,5.884,5.806,5.755,5.73,5.73,5.68,5.755,5.806,5.831,5.884,5.937,6.019,6.103,6.131,6.16,6.189,6.248,6.278,6.339,6.4,6.463,6.56,6.66,6.798,6.87,6.906,6.942,7.016,7.054,7.131,7.17,7.209,7.249,7.289,7.371,7.371,7.413,7.413,7.455,7.541,7.584,7.673,7.81,8.001,8.15,8.357,8.465,8.52,8.689,8.747,8.865,8.926,8.987,9.049,9.112,9.24,9.372,9.577,9.719,10.093,10.497,10.934,11.214,11.311,11.611,11.821,12.037,12.739,13.527,14.108,14.418,14.91,15.081,15.436,15.436,15.436,15.436,15.436,15.808,16.001,16.199,16.401,16.609,16.822,16.822,17.04,17.264,17.264,17.494,17.494,17.494,17.731,17.974,17.974,17.974,17.974,17.974,17.974,17.974,17.731,17.494,17.04,17.04,16.822,16.822,16.609,16.401,16.401,16.401,16.401,16.609,16.822,16.822,16.822,16.822,17.04,17.04,17.04,17.04,17.04,17.04,17.04,17.04,16.822,16.822,16.822,16.822,16.822,16.609,16.401,16.401,16.401,16.199,16.199,16.001,16.001,16.001,16.001,16.001,15.808,15.808,15.808,16.001,16.001,16.001,16.001,16.001,16.199,16.199,16.401,16.401,16.609,16.822,17.04,17.04,17.264,17.264,17.494,17.264,17.264,17.264,17.264,17.264,17.264,17.264,17.494,17.731,17.731,17.731,17.731,17.731,17.731,17.731,17.731,17.731,17.731,17.731,17.731,17.494,17.264,17.04,17.04,16.822,16.822,16.822,16.609,16.401,16.401,16.401,16.199,16.199,16.199,16.199,16.199,16.199,16.001,15.808,15.62,15.257,14.91,13.958,13.389,12.739,12.378,12.037,11.928,11.611,11.409,11.119,10.755,10.497,10.171,9.865,9.577,9.306,9.112,8.865,0,7.673,7.455,7.371,7.17,7.016,6.763,6.56,6.432,6.369,6.308,6.278,6.248,6.16,6.074,5.991,5.937,5.91,5.91,5.91,5.91,5.91,5.91,5.91,5.937,5.991,6.074,6.103,6.131,6.218,6.248,6.278,6.278,6.308,6.308,6.369,6.4,6.432,6.463,6.495,6.495,6.528,6.528,6.528,6.528,6.528,6.528,6.495,6.495,6.463,6.463,6.495,6.495,6.528,6.495,6.495,6.463,6.432,6.4,6.339,0
0,0,0,0,0,0,0,3.169,3.08,3.051,0,0,2.896,2.846,2.828,2.816,2.792,2.762,2.728,2.705,2.689,2.678,2.661,2.656,2.645,2.64,2.635,2.624,2.593,0,0,0,0,0,0,2.07,2.076,2.076,2.079,2.083,2.086,2.096,2.099,2.103,2.109,2.113,2.127,2.133,2.144,2.154,2.165,2.176,2.187,2.194,2.201,2.205,2.209,2.209,2.213,2.213,2.216,2.216,2.22,2.224,2.224,2.231,2.243,2.258,2.274,2.29,2.31,2.322,2.331,2.339,2.339,2.343,2.351,2.356,2.36,2.368,2.377,2.394,2.407,2.425,2.448,2.462,2.466,2.476,2.476,2.48,2.485,2.49,2.494,2.494,2.499,2.509,2.518,2.528,2.553,2.573,2.588,2.609,2.619,2.629,2.635,2.64,2.651,2.656,2.661,2.661,2.667,2.672,2.678,2.683,2.689,2.694,2.705,2.711,2.722,2.728,2.739,2.745,2.762,2.78,2.786,2.798,2.804,2.816,2.822,2.828,2.828,2.834,2.84,2.846,2.852,2.865,2.877,2.884,2.903,2.916,2.935,2.935,2.935,2.922,2.916,2.903,2.896,2.884,2.877,2.871,2.871,2.871,2.877,2.896,2.916,2.935,2.962,2.982,3.002,3.023,3.03,3.037,3.051,3.058,3.058,3.066,3.073,3.073,3.08,3.08,3.08,3.095,3.102,3.139,3.162,3.177,3.2,3.224,3.24,3.256,3.264,3.272,3.28,3.297,3.313,3.339,3.373,3.426,3.471,3.508,3.537,3.537,3.546,3.546,0,7.33,7.33,7.289,7.289,7.249,7.249,7.249,7.209,7.17,7.131,7.054,7.054,7.054,7.016,6.942,6.87,6.763,6.66,6.56,6.495,6.432,6.4,6.369,6.369,6.339,6.308,6.308,6.278,6.278,6.248,6.248,6.248,6.248,6.218,6.218,6.189,6.189,6.189,6.218,6.218,6.218,6.189,6.189,6.189,6.189,6.189,6.16,6.131,6.131,6.103,6.103,6.103,6.103,6.074,6.019,5.937,5.91,5.884,5.806,5.806,5.806,5.884,5.91,5.937,5.991,6.019,6.131,6.16,6.16,6.16,6.189,6.248,6.278,6.369,6.4,6.463,6.56,6.66,6.798,6.87,6.906,6.942,7.016,7.054,7.131,7.209,7.209,7.289,7.33,7.371,7.413,7.413,7.413,7.455,7.541,7.584,7.673,7.857,8.001,8.15,8.357,8.52,8.632,8.747,8.806,8.926,8.987,9.049,9.049,9.175,9.306,9.577,9.865,10.093,10.413,10.755,11.119,11.409,11.509,11.715,11.928,12.149,12.991,13.811,14.108,14.91,15.081,15.257,15.436,15.62,15.62,15.436,15.62,15.808,16.001,16.199,16.401,16.609,16.822,17.04,17.264,17.494,17.731,17.731,17.731,17.731,17.731,17.974,17.731,17.731,17.731,17.731,17.494,17.494,17.264,17.04,17.04,16.822,16.822,16.822,16.401,16.401,16.401,16.609,16.609,16.609,16.822,16.822,17.04,17.04,17.264,17.494,17.494,17.494,17.494,17.264,17.264,17.264,17.264,17.04,17.04,17.04,16.822,16.822,16.609,16.609,16.401,16.199,16.199,16.199,16.001,16.001,16.001,16.001,16.001,16.001,16.001,16.001,16.001,16.199,16.199,16.401,16.401,16.609,16.822,16.822,17.04,17.264,17.494,17.494,17.731,17.974,17.974,17.731,17.731,17.731,17.731,17.731,17.731,17.731,17.974,17.974,17.974,17.974,18.223,17.974,17.974,17.974,17.974,17.974,17.974,17.974,17.731,17.731,17.494,17.264,17.04,17.04,16.822,16.822,16.822,16.609,16.401,16.401,16.401,16.401,16.401,16.401,16.199,16.199,16.199,16.001,15.808,15.436,15.081,14.418,13.527,12.991,12.496,12.149,11.928,11.611,11.409,11.026,10.755,10.413,10.171,9.865,9.508,9.24,9.049,8.806,8.252,7.673,7.455,7.371,7.17,7.016,6.763,6.593,6.463,6.369,6.339,6.278,6.248,6.189,6.103,6.019,5.991,5.937,5.937,5.937,5.91,5.91,5.937,5.937,5.991,6.019,6.074,6.131,6.189,6.218,6.248,6.278,6.308,6.339,6.339,6.369,6.4,6.463,6.495,6.56,6.56,6.56,6.56,6.593,6.593,6.56,6.56,6.528,6.495,6.495,6.463,6.495,6.495,6.495,6.495,6.495,6.463,6.432,6.4,6.369,5.884
0,0,0,0,0,0,0,0,3.037,0,0,0,2.84,2.816,2.786,2.751,2.722,2.694,2.672,2.661,2.656,2.645,2.64,2.635,2.624,2.614,2.603,2.593,2.578,0,0,0,0,0,0,0,2.083,2.083,2.086,2.089,2.093,2.099,2.103,2.109,2.113,2.123,2.133,2.144,2.154,2.165,2.176,2.187,2.194,2.201,2.205,2.209,2.209,2.213,2.213,2.216,2.216,2.22,2.224,2.224,2.228,2.235,2.247,2.262,2.282,2.302,2.314,2.326,2.335,2.339,2.343,2.347,2.351,2.356,2.364,2.368,2.381,2.394,2.407,2.425,2.448,2.457,2.466,2.476,2.476,2.48,2.485,2.485,2.49,2.494,2.499,2.504,2.518,2.528,2.543,2.568,2.588,2.603,2.619,2.629,2.635,2.64,2.651,2.656,2.661,2.661,2.667,2.672,2.678,2.683,2.689,2.694,2.705,2.722,2.728,2.739,2.745,2.751,2.768,2.78,2.792,2.804,2.81,2.816,2.822,2.828,2.828,2.834,2.84,2.846,2.846,2.859,2.865,2.877,2.884,2.896,2.903,2.916,2.916,2.903,2.896,2.884,2.884,2.877,2.871,2.871,2.865,2.877,2.884,2.903,2.922,2.942,2.969,2.996,3.016,3.03,3.037,3.051,3.058,3.058,3.073,3.08,3.087,3.087,3.087,3.087,3.087,3.102,3.117,3.139,3.162,3.177,3.2,3.224,3.24,3.256,3.264,3.272,3.28,3.297,3.305,3.322,3.347,3.399,3.444,3.499,3.518,3.537,3.537,3.546,0,7.371,7.371,7.33,7.289,7.289,7.289,7.249,7.249,7.209,7.17,7.131,7.131,7.054,7.016,6.942,6.87,6.763,6.66,6.56,6.495,6.463,6.4,6.369,6.369,6.339,6.308,6.308,6.308,6.278,6.278,6.248,6.248,6.248,6.248,6.248,6.218,6.218,6.218,6.218,6.218,6.218,6.189,6.189,6.218,6.218,6.218,6.218,6.189,6.189,6.189,6.189,6.16,6.131,6.131,6.103,6.019,5.991,5.937,5.91,5.91,5.937,5.991,6.019,6.074,6.074,6.131,6.16,6.189,6.189,6.189,6.189,6.248,6.278,6.369,6.4,6.463,6.56,6.694,6.798,6.87,6.906,6.942,7.016,7.054,7.17,7.209,7.249,7.289,7.33,7.371,7.413,7.413,7.413,7.498,7.541,7.584,7.718,7.857,8.099,8.15,8.357,8.632,8.689,8.747,8.865,8.987,8.987,9.049,9.112,9.306,9.508,9.865,10.331,10.497,10.667,11.026,11.311,11.509,11.509,11.715,11.928,12.262,12.991,13.958,14.579,15.081,15.257,15.62,15.62,15.808,15.62,15.62,15.62,16.001,16.199,16.199,16.609,16.822,17.04,17.264,17.494,17.731,17.974,17.974,17.974,17.974,17.974,17.974,17.731,17.731,17.731,17.494,17.494,17.264,17.264,17.04,17.04,16.822,16.822,16.609,16.609,16.609,16.401,16.609,16.609,16.822,17.04,17.04,17.264,17.494,17.731,17.974,17.974,18.223,17.974,17.974,17.731,17.731,17.494,17.494,17.264,17.04,17.04,16.822,16.822,16.401,16.401,16.199,16.199,16.001,16.001,15.808,15.808,16.001,16.001,16.001,16.001,16.199,16.199,16.401,16.609,16.822,16.822,17.04,17.04,17.264,17.494,17.974,17.974,18.223,18.48,19.016,19.016,18.48,18.48,18.223,18.223,18.223,18.223,18.223,18.48,18.48,18.48,18.48,18.48,18.48,18.48,18.48,18.223,18.223,18.223,18.223,18.223,17.974,17.974,17.731,17.494,17.264,17.04,17.04,16.822,16.822,16.609,16.609,16.401,16.401,16.401,16.401,16.401,16.401,16.199,16.199,16.001,15.808,15.257,14.91,13.958,13.389,12.739,12.262,11.928,11.611,11.409,11.026,10.755,10.413,10.093,9.719,9.508,9.24,9.049,8.689,8.252,7.584,7.455,7.371,7.17,7.016,6.798,6.593,6.463,6.4,6.339,6.308,6.248,6.218,6.16,6.103,6.074,6.019,5.991,5.991,5.937,5.937,5.937,5.991,6.019,6.019,6.103,6.16,6.189,6.218,6.248,6.308,6.339,6.339,6.369,6.4,6.432,6.495,6.56,6.593,6.593,6.593,6.66,6.66,6.593,6.593,6.56,6.528,6.528,6.495,6.495,6.495,6.495,6.495,6.495,6.495,6.463,6.432,6.432,6.369,0
0,0,0,0,0,0,0,0,0,2.877,2.834,2.816,2.78,0,2.705,2.689,2.667,2.656,2.645,2.64,2.635,2.629,2.619,2.609,2.593,2.588,2.578,2.578,2.568,2.494,2.421,0,0,0,0,0,2.089,2.089,2.096,2.096,2.099,2.103,2.106,2.113,2.12,2.13,2.144,2.154,2.165,2.176,2.187,2.194,2.201,2.205,2.209,2.213,2.213,2.213,2.216,2.216,2.22,2.224,2.224,2.228,2.231,2.243,2.251,2.27,2.29,2.302,2.318,2.331,2.339,2.343,2.347,2.351,2.356,2.36,2.368,2.377,2.381,2.403,2.416,2.434,2.448,2.457,2.466,2.471,2.476,2.48,2.485,2.49,2.494,2.494,2.499,2.504,2.514,2.528,2.543,2.568,2.588,2.603,2.619,2.629,2.635,2.64,2.651,2.656,2.661,2.661,2.667,2.672,2.678,2.683,2.689,2.694,2.711,2.722,2.739,2.745,2.751,2.768,2.78,2.792,2.798,2.81,2.816,2.816,2.822,2.828,2.834,2.834,2.84,2.84,2.846,2.859,2.865,2.865,2.871,2.877,2.884,2.884,2.884,2.877,2.871,2.871,2.871,2.865,2.865,2.865,2.865,2.877,2.896,2.916,2.942,2.962,2.982,3.002,3.023,3.03,3.044,3.051,3.058,3.073,3.087,3.095,3.095,3.095,3.095,3.095,3.095,3.117,3.124,3.146,3.169,3.2,3.216,3.232,3.248,3.256,3.264,3.272,3.28,3.288,3.297,3.305,3.339,3.382,3.435,3.49,3.518,3.527,3.537,3.546,0,7.371,7.371,7.371,7.33,7.33,7.289,7.289,7.289,7.209,7.209,7.17,7.131,7.131,7.016,6.942,6.87,6.763,6.66,6.56,6.528,6.463,6.4,6.4,6.369,6.339,6.308,6.308,6.308,6.278,6.278,6.248,6.248,6.248,6.248,6.248,6.248,6.218,6.218,6.248,6.248,6.248,6.248,6.248,6.248,6.248,6.248,6.248,6.248,6.248,6.248,6.248,6.248,6.218,6.189,6.16,6.131,6.074,6.019,6.019,6.019,6.019,6.131,6.131,6.103,6.131,6.16,6.189,6.218,6.189,6.189,6.189,6.248,6.278,6.369,6.4,6.463,6.56,6.694,6.798,6.87,6.906,6.942,7.054,7.131,7.17,7.209,7.249,7.289,7.371,7.371,7.413,7.413,7.413,7.498,7.541,7.628,7.718,7.857,8.099,8.252,8.465,8.632,8.689,8.806,8.926,8.987,8.987,9.112,9.24,9.372,9.648,10.171,10.497,10.755,11.026,11.311,11.509,11.611,11.611,11.821,12.037,12.378,13.389,14.418,15.081,15.257,15.62,16.001,16.001,16.001,16.001,16.001,16.001,16.199,16.401,16.401,16.822,17.04,17.264,17.731,17.974,18.223,18.223,18.223,18.223,17.974,17.974,17.731,17.731,17.494,17.264,17.264,17.264,17.04,17.04,17.04,16.822,16.822,16.822,16.822,16.609,16.609,16.609,16.822,16.822,17.04,17.04,17.264,17.494,17.974,18.223,18.223,18.48,19.016,18.48,18.48,18.48,18.223,17.974,17.731,17.494,17.264,17.04,16.822,16.822,16.609,16.401,16.199,16.199,16.001,16.001,15.808,16.001,16.001,16.001,16.199,16.199,16.401,16.401,16.822,16.822,17.04,17.264,17.494,17.731,17.974,18.48,18.48,19.016,19.295,19.295,19.88,19.88,19.295,19.295,19.295,19.295,19.295,19.016,19.016,19.295,19.295,19.295,19.295,19.295,19.016,19.016,19.016,18.48,19.016,19.016,18.48,18.48,18.223,17.974,17.974,17.731,17.494,17.264,17.04,17.04,16.822,16.822,16.822,16.609,16.609,16.609,16.609,16.401,16.401,16.401,16.199,16.001,16.001,15.436,15.081,14.418,13.527,12.991,12.262,12.037,11.715,11.509,11.119,10.667,10.413,10.093,9.719,9.508,9.24,8.987,8.632,8.252,7.628,7.455,7.371,7.17,7.016,6.798,6.66,6.495,6.4,6.369,6.308,6.278,6.248,6.189,6.131,6.103,6.074,6.019,6.019,5.991,5.991,5.991,5.991,6.019,6.074,6.103,6.16,6.189,6.248,6.278,6.308,6.339,6.369,6.369,6.4,6.463,6.528,6.56,6.66,6.66,6.66,6.66,6.694,6.66,6.66,6.593,6.56,6.528,6.495,6.463,6.495,6.495,6.495,6.495,6.495,6.463,6.463,6.432,6.4,0
0,0,0,0,0,0,0,0,0,0,0,0,0,0,0,2.656,2.651,2.64,2.635,2.629,2.619,2.614,2.609,2.593,2.588,2.578,2.573,2.573,2.573,0,0,0,0,0,0,0,0,2.093,2.096,2.099,2.099,2.103,2.109,2.113,2.123,2.133,2.151,2.162,2.169,2.18,2.19,2.198,2.205,2.209,2.213,2.213,2.213,2.216,2.216,2.216,2.22,2.224,2.228,2.228,2.235,2.247,2.262,2.282,2.298,2.314,2.322,2.335,2.339,2.343,2.351,2.351,2.356,2.364,2.373,2.381,2.39,2.403,2.416,2.434,2.448,2.457,2.466,2.471,2.476,2.48,2.485,2.49,2.494,2.494,2.499,2.509,2.518,2.528,2.543,2.568,2.578,2.603,2.619,2.629,2.635,2.64,2.651,2.656,2.656,2.661,2.667,2.672,2.678,2.683,2.689,2.705,2.711,2.728,2.739,2.751,2.762,2.78,2.792,2.798,2.804,2.816,2.816,2.822,2.822,2.828,2.828,2.84,2.84,2.84,2.846,2.852,2.852,2.859,2.859,2.865,2.871,2.871,2.871,2.865,2.859,2.852,2.859,2.859,2.859,2.859,2.865,2.877,2.903,2.922,2.948,2.969,3.002,3.016,3.03,3.037,3.051,3.058,3.066,3.08,3.095,3.102,3.102,3.117,3.102,3.102,3.102,3.124,3.139,3.162,3.192,3.216,3.232,3.248,3.256,3.264,3.272,3.272,3.272,3.28,3.288,3.297,3.322,3.356,3.426,3.471,3.508,3.518,3.527,3.537,0,7.33,7.371,7.371,7.33,7.289,7.289,7.289,7.289,7.209,7.209,7.17,7.131,7.054,7.016,6.906,6.87,6.694,6.593,6.56,6.495,6.432,6.4,6.369,6.369,6.339,6.308,6.308,6.308,6.278,6.278,6.248,6.248,6.248,6.248,6.248,6.248,6.218,6.248,6.248,6.248,6.248,6.248,6.248,6.248,6.248,6.278,6.278,6.278,6.278,6.278,6.278,6.248,6.248,6.248,6.218,6.16,6.131,6.103,6.103,6.131,6.16,6.218,6.218,6.189,6.189,6.189,6.248,6.248,6.218,6.189,6.218,6.248,6.308,6.369,6.4,6.463,6.56,6.763,6.798,6.906,6.942,7.016,7.054,7.131,7.17,7.209,7.289,7.33,7.371,7.413,7.455,7.455,7.455,7.541,7.584,7.673,7.81,7.952,8.099,8.304,8.465,8.689,8.747,8.806,8.987,8.987,9.049,9.175,9.306,9.577,9.94,10.413,10.934,11.119,11.214,11.409,11.509,11.611,11.715,11.928,12.037,12.496,13.527,14.418,15.257,15.62,16.001,16.199,16.199,16.199,16.199,16.199,16.199,16.401,16.609,16.822,17.04,17.264,17.494,17.974,18.223,18.48,18.48,18.48,18.223,18.223,17.974,17.974,17.731,17.494,17.494,17.264,17.264,17.04,17.04,17.04,16.822,16.822,16.822,16.822,16.822,16.822,16.822,16.822,16.822,17.04,17.264,17.494,17.974,18.223,18.48,19.016,19.295,19.295,19.295,19.295,19.016,19.016,18.48,18.223,17.974,17.494,17.264,17.04,16.822,16.822,16.401,16.401,16.199,16.001,16.001,15.808,16.001,16.001,16.001,16.199,16.401,16.401,16.822,16.822,17.264,17.494,17.731,18.223,18.48,19.016,19.295,19.88,20.186,20.186,20.827,20.827,20.827,20.827,20.827,20.186,20.186,20.186,19.88,19.88,19.88,19.88,19.88,19.88,19.88,19.88,19.295,19.295,19.295,19.295,19.295,19.295,19.016,18.48,18.223,17.974,17.974,17.731,17.494,17.264,17.04,17.04,17.04,16.822,16.822,16.822,16.609,16.609,16.609,16.401,16.401,16.199,16.199,16.001,15.62,15.257,14.579,13.958,13.121,12.496,12.037,11.715,11.509,11.119,10.755,10.413,10.093,9.719,9.508,9.24,8.987,8.632,8.15,7.628,7.455,7.371,7.17,7.016,6.798,6.66,6.495,6.4,6.369,6.308,6.278,6.248,6.218,6.189,6.131,6.131,6.103,6.074,6.019,5.991,5.991,6.019,6.074,6.074,6.131,6.189,6.218,6.248,6.278,6.308,6.369,6.369,6.4,6.4,6.463,6.528,6.56,6.66,6.66,6.694,6.694,6.694,6.694,6.66,6.593,6.528,6.495,6.495,6.463,6.463,6.463,6.463,6.495,6.463,6.463,6.463,6.4,6.369,0
0,0,0,0,0,0,0,0,0,0,0,0,2.651,2.651,2.645,2.645,2.64,2.635,2.635,2.629,2.624,2.619,2.609,2.593,2.588,2.578,2.578,2.573,2.573,0,0,0,0,2.106,0,0,2.096,2.096,2.099,2.099,2.103,2.106,2.109,2.116,2.127,2.133,2.151,2.165,2.176,2.18,2.19,2.198,2.205,2.209,2.213,2.213,2.216,2.216,2.216,2.22,2.224,2.228,2.228,2.235,2.243,2.258,2.27,2.286,2.302,2.318,2.326,2.335,2.343,2.347,2.351,2.356,2.356,2.364,2.377,2.39,2.394,2.416,2.425,2.439,2.452,2.462,2.466,2.476,2.476,2.48,2.485,2.49,2.494,2.494,2.499,2.509,2.518,2.528,2.543,2.568,2.578,2.603,2.619,2.629,2.635,2.64,2.645,2.656,2.656,2.661,2.667,2.672,2.678,2.683,2.689,2.705,2.711,2.722,2.739,2.751,2.768,2.78,2.792,2.804,2.81,2.816,2.822,2.822,2.828,2.828,2.834,2.84,2.84,2.84,2.846,2.846,2.846,2.846,2.846,2.846,2.846,2.852,2.852,2.846,2.846,2.846,2.846,2.852,2.852,2.865,2.871,2.884,2.916,2.942,2.969,2.996,3.009,3.023,3.037,3.044,3.058,3.066,3.073,3.08,3.095,3.102,3.117,3.117,3.117,3.117,3.117,3.124,3.146,3.169,3.2,3.224,3.24,3.256,3.264,3.272,3.272,3.272,3.28,3.28,3.28,3.297,3.305,3.339,3.399,3.435,3.471,3.499,3.518,3.527,3.546,0,7.289,7.289,7.289,7.249,7.249,7.249,7.249,7.17,7.17,7.054,7.016,7.016,6.906,6.87,6.763,6.694,6.593,6.528,6.463,6.432,6.4,6.369,6.369,6.339,6.308,6.308,6.308,6.278,6.278,6.248,6.248,6.248,6.248,6.248,6.248,6.248,6.248,6.248,6.278,6.278,6.278,6.278,6.278,6.278,6.308,6.308,6.308,6.278,6.278,6.278,6.278,6.278,6.248,6.248,6.248,6.218,6.189,6.189,6.218,6.248,6.278,6.278,6.248,6.248,6.248,6.248,6.248,6.218,6.218,6.218,6.248,6.308,6.369,6.4,6.495,6.593,6.763,6.798,6.906,6.942,7.016,7.054,7.131,7.209,7.249,7.289,7.33,7.371,7.413,7.455,7.455,7.455,7.541,7.584,7.718,7.81,8.001,8.15,8.304,8.52,8.689,8.747,8.865,8.987,9.049,9.112,9.24,9.439,9.719,10.331,10.755,11.214,11.311,11.409,11.509,11.611,11.715,11.715,11.928,12.037,12.496,13.527,14.579,15.436,16.001,16.199,16.401,16.401,16.401,16.401,16.401,16.401,16.609,16.822,17.04,17.264,17.494,17.731,18.223,18.48,18.48,18.48,18.48,18.48,18.223,18.223,17.974,17.731,17.494,17.264,17.04,17.04,17.04,17.04,16.822,16.822,16.822,16.822,16.822,16.822,16.822,16.822,17.04,17.04,17.264,17.494,17.731,18.223,18.48,19.295,19.88,19.88,20.186,20.186,19.88,19.88,19.88,19.295,18.48,18.223,17.974,17.494,17.264,17.04,17.04,16.822,16.401,16.199,16.199,16.199,16.001,16.001,16.001,16.199,16.199,16.401,16.609,16.822,17.04,17.494,17.974,18.48,19.016,19.88,20.186,20.186,21.163,21.163,21.163,21.51,21.51,21.51,21.163,21.163,21.163,21.163,20.827,20.827,20.827,20.827,20.827,20.186,20.186,20.186,20.186,20.186,19.88,19.88,19.88,19.88,19.88,19.295,19.016,18.48,18.223,17.974,17.731,17.494,17.264,17.04,17.04,17.04,16.822,16.822,16.822,16.822,16.609,16.609,16.609,16.401,16.401,16.199,16.001,16.001,15.436,14.91,14.108,13.389,12.616,12.149,11.821,11.611,11.214,10.934,10.497,10.331,9.94,9.577,9.175,8.987,8.52,8.099,7.628,7.455,7.371,7.17,7.016,6.798,6.593,6.495,6.4,6.369,6.308,6.278,6.248,6.218,6.189,6.16,6.131,6.103,6.103,6.074,6.019,6.019,6.074,6.074,6.103,6.131,6.189,6.218,6.248,6.278,6.308,6.369,6.369,6.4,6.432,6.463,6.528,6.56,6.66,6.66,6.694,6.66,6.694,6.66,6.593,6.56,6.528,6.495,6.463,6.432,6.432,6.432,6.432,6.432,6.432,6.4,6.4,6.369,6.308,6.074
0,0,0,0,0,0,0,0,0,0,0,0,2.635,2.64,2.635,2.64,2.635,2.635,2.629,2.629,2.619,2.619,2.614,2.603,2.593,2.588,2.588,2.578,2.499,0,0,0,0,2.099,2.096,2.093,2.096,2.096,2.099,2.099,2.103,2.106,2.109,2.116,2.123,2.133,2.151,2.162,2.169,2.187,2.194,2.198,2.205,2.209,2.213,2.213,2.216,2.216,2.22,2.224,2.224,2.228,2.231,2.239,2.247,2.262,2.282,2.298,2.314,2.326,2.335,2.339,2.343,2.347,2.351,2.356,2.36,2.368,2.381,2.39,2.403,2.416,2.434,2.439,2.452,2.462,2.471,2.476,2.476,2.48,2.485,2.49,2.494,2.494,2.499,2.509,2.518,2.528,2.543,2.568,2.578,2.603,2.619,2.629,2.635,2.64,2.645,2.656,2.656,2.661,2.661,2.667,2.672,2.678,2.683,2.694,2.705,2.722,2.739,2.751,2.768,2.78,2.792,2.804,2.816,2.816,2.822,2.822,2.828,2.828,2.834,2.84,2.84,2.84,2.84,2.84,2.84,2.846,2.84,2.84,2.84,2.84,2.84,2.84,2.84,2.84,2.84,2.846,2.846,2.859,2.871,2.884,2.922,2.948,2.982,3.002,3.023,3.03,3.037,3.051,3.058,3.066,3.073,3.087,3.095,3.102,3.117,3.117,3.117,3.117,3.117,3.139,3.162,3.169,3.2,3.232,3.256,3.264,3.272,3.28,3.28,3.28,3.28,3.28,3.28,3.28,3.305,3.33,3.373,3.408,3.462,3.49,3.499,3.518,3.537,0,7.249,7.249,7.209,7.17,7.209,7.209,7.17,7.131,7.054,6.942,6.906,6.906,6.87,6.763,6.694,6.593,6.528,6.495,6.463,6.432,6.4,6.369,6.369,6.339,6.308,6.308,6.308,6.278,6.248,6.248,6.248,6.248,6.248,6.248,6.248,6.248,6.248,6.278,6.278,6.278,6.308,6.308,6.308,6.308,6.339,6.339,6.339,6.339,6.339,6.308,6.308,6.308,6.278,6.278,6.248,6.248,6.248,6.248,6.278,6.278,6.308,6.308,6.278,6.278,6.278,6.248,6.248,6.218,6.218,6.218,6.278,6.308,6.369,6.4,6.495,6.593,6.763,6.798,6.906,6.942,7.016,7.054,7.17,7.209,7.249,7.289,7.33,7.371,7.413,7.455,7.455,7.498,7.584,7.628,7.764,7.857,8.099,8.252,8.465,8.632,8.747,8.806,8.926,8.987,9.049,9.175,9.306,9.577,10.093,10.667,11.119,11.509,11.509,11.611,11.611,11.715,11.715,11.715,11.928,12.037,12.616,13.811,14.91,15.62,16.001,16.199,16.401,16.609,16.609,16.609,16.609,16.822,16.822,17.04,17.264,17.494,17.731,17.974,18.223,18.48,18.48,18.48,18.48,18.48,18.48,18.223,17.974,17.731,17.494,17.264,17.04,17.04,17.04,17.04,16.822,16.822,16.822,16.822,16.822,16.822,17.04,17.04,17.04,17.264,17.494,17.731,18.223,18.48,19.295,19.88,20.186,20.186,20.827,20.827,20.827,20.186,20.186,19.88,19.295,19.016,18.48,17.974,17.494,17.494,17.04,17.04,16.822,16.609,16.401,16.401,16.199,16.199,16.199,16.199,16.401,16.822,16.822,17.04,17.264,18.223,18.48,19.295,20.186,20.827,21.163,21.51,22.239,22.239,22.239,22.239,22.239,22.239,22.239,22.239,21.51,21.51,21.51,21.51,21.51,21.163,21.163,21.163,21.163,20.827,20.827,20.827,20.827,20.186,20.827,20.186,20.186,19.88,19.295,19.016,18.48,18.223,17.974,17.731,17.264,17.264,17.04,17.04,17.04,16.822,16.822,16.822,16.822,16.822,16.609,16.401,16.401,16.199,16.199,16.001,15.62,15.081,14.108,13.527,12.739,12.262,11.928,11.611,11.409,11.026,10.667,10.331,9.94,9.577,9.24,8.926,8.465,0,7.628,7.455,7.33,7.131,6.906,6.763,6.56,6.463,6.369,6.339,6.308,6.278,6.278,6.248,6.248,6.189,6.189,6.131,6.103,6.103,6.074,6.074,6.103,6.103,6.103,6.16,6.189,6.248,6.248,6.278,6.308,6.339,6.369,6.4,6.432,6.463,6.528,6.56,6.593,6.66,6.66,6.66,6.66,6.66,6.56,6.528,6.495,6.432,6.4,6.4,6.4,6.4,6.4,6.4,6.4,6.369,6.339,6.308,6.248,5.991
0,0,0,0,0,0,0,0,0,0,0,0,2.603,2.614,2.609,2.619,2.619,2.619,2.614,2.614,2.609,2.614,2.619,2.609,2.603,2.593,2.588,2.578,0,0,0,0,2.093,2.096,2.093,2.093,2.096,2.096,2.099,2.099,2.103,2.106,2.109,2.113,2.12,2.13,2.14,2.151,2.165,2.176,2.187,2.198,2.201,2.209,2.213,2.213,2.216,2.216,2.22,2.224,2.228,2.228,2.235,2.243,2.258,2.27,2.29,2.31,2.322,2.331,2.339,2.343,2.347,2.351,2.351,2.356,2.364,2.373,2.381,2.394,2.407,2.421,2.434,2.448,2.457,2.466,2.471,2.476,2.476,2.48,2.485,2.49,2.494,2.494,2.499,2.509,2.518,2.538,2.553,2.568,2.588,2.603,2.619,2.629,2.635,2.64,2.645,2.651,2.656,2.661,2.661,2.667,2.672,2.672,2.678,2.689,2.705,2.711,2.728,2.745,2.768,2.786,2.798,2.81,2.816,2.816,2.822,2.828,2.828,2.828,2.834,2.84,2.84,2.84,2.84,2.84,2.84,2.834,2.834,2.834,2.828,2.828,2.828,2.828,2.828,2.828,2.834,2.84,2.846,2.852,2.865,2.884,2.916,2.948,2.989,3.009,3.023,3.03,3.037,3.051,3.058,3.058,3.073,3.08,3.087,3.102,3.117,3.117,3.117,3.117,3.117,3.139,3.162,3.177,3.216,3.24,3.264,3.272,3.272,3.28,3.28,3.28,3.28,3.28,3.28,3.28,3.297,3.313,3.347,3.399,3.435,3.462,3.49,3.499,3.518,7.209,7.209,7.209,7.17,7.17,7.17,7.131,7.131,7.054,6.942,6.906,6.87,6.798,6.763,6.694,6.593,6.56,6.528,6.463,6.432,6.4,6.4,6.369,6.369,6.339,6.308,6.308,6.308,6.278,6.248,6.248,6.248,6.218,6.248,6.248,6.248,6.278,6.278,6.278,6.308,6.308,6.308,6.308,6.369,6.369,6.369,6.369,6.369,6.369,6.369,6.369,6.339,6.308,6.308,6.308,6.278,6.278,6.278,6.278,6.308,6.339,6.369,6.369,6.339,6.308,6.278,6.278,6.248,6.248,6.248,6.248,6.278,6.308,6.369,6.432,6.528,6.66,6.763,6.87,6.906,6.942,7.016,7.131,7.17,7.209,7.249,7.289,7.33,7.371,7.413,7.455,7.498,7.498,7.584,7.718,7.764,7.952,8.15,8.357,8.52,8.689,8.747,8.865,8.987,9.049,9.112,9.24,9.372,9.719,10.331,10.934,11.311,11.611,11.611,11.611,11.715,11.715,11.715,11.715,11.928,12.037,12.616,13.811,14.91,15.808,16.001,16.401,16.822,16.822,16.822,16.822,16.822,17.04,17.04,17.264,17.494,17.731,17.974,18.223,18.223,18.48,19.016,18.48,18.48,19.016,18.48,18.223,17.974,17.731,17.264,17.264,17.04,17.04,16.822,16.822,16.822,16.822,17.04,17.04,17.04,17.04,17.264,17.264,17.494,17.731,17.731,17.974,18.48,19.016,19.295,20.186,20.827,20.827,21.163,21.163,21.163,20.827,20.186,20.186,19.88,19.016,18.48,18.223,17.974,17.494,17.494,17.04,17.04,16.822,16.822,16.822,16.609,16.609,16.401,16.822,16.822,17.04,17.04,17.264,17.731,18.48,19.295,20.186,21.163,21.51,21.51,22.622,22.622,22.622,23.43,22.622,23.43,22.622,22.622,22.622,22.622,22.622,22.622,22.622,22.239,22.239,22.239,21.51,22.239,21.51,21.51,21.163,21.163,21.163,21.163,21.163,20.827,20.186,19.88,19.295,19.016,18.223,17.974,17.494,17.264,17.264,17.04,17.04,17.04,16.822,16.822,16.822,16.822,16.822,16.609,16.401,16.401,16.401,16.199,16.001,15.62,15.081,14.418,13.811,12.991,12.378,12.037,11.715,11.509,11.119,10.755,10.413,10.093,9.648,9.24,8.865,8.304,0,7.584,7.413,7.249,7.016,6.87,6.66,6.528,6.432,6.369,6.339,6.308,6.278,6.278,6.278,6.248,6.248,6.218,6.189,6.16,6.131,6.103,6.103,6.103,6.103,6.131,6.16,6.189,6.218,6.248,6.278,6.308,6.339,6.369,6.369,6.4,6.463,6.495,6.528,6.56,6.593,6.593,6.593,6.593,6.56,6.528,6.495,6.463,6.4,6.4,6.369,6.369,6.369,6.369,6.369,6.369,6.308,6.278,6.278,6.189,5.91
0,0,0,0,0,0,0,0,0,0,0,2.494,2.499,2.509,2.518,2.543,2.558,2.568,2.573,2.573,2.588,2.603,2.609,2.603,2.603,2.593,0,0,0,0,0,0,0,2.07,2.083,2.089,2.096,2.096,2.099,2.103,2.103,2.106,2.109,2.113,2.116,2.123,2.13,2.144,2.162,2.169,2.18,2.19,2.201,2.209,2.213,2.216,2.216,2.22,2.224,2.224,2.228,2.235,2.239,2.247,2.262,2.274,2.29,2.314,2.326,2.335,2.339,2.343,2.347,2.351,2.356,2.356,2.364,2.373,2.381,2.394,2.416,2.421,2.434,2.452,2.457,2.466,2.471,2.476,2.476,2.48,2.485,2.49,2.494,2.494,2.499,2.509,2.523,2.538,2.558,2.573,2.588,2.609,2.619,2.629,2.635,2.64,2.645,2.651,2.656,2.656,2.661,2.661,2.667,2.667,2.678,2.683,2.694,2.711,2.728,2.745,2.762,2.786,2.798,2.81,2.816,2.822,2.822,2.828,2.828,2.828,2.834,2.84,2.84,2.84,2.834,2.828,2.828,2.828,2.828,2.822,2.822,2.816,2.822,2.816,2.822,2.822,2.828,2.828,2.84,2.846,2.865,2.884,2.916,2.948,2.989,3.009,3.023,3.03,3.037,3.051,3.058,3.058,3.066,3.073,3.087,3.095,3.102,3.102,3.102,3.102,3.117,3.139,3.162,3.177,3.224,3.248,3.264,3.272,3.28,3.28,3.28,3.28,3.28,3.28,3.272,3.28,3.297,3.305,3.339,3.373,3.408,3.444,3.462,3.49,3.499,7.131,7.17,7.17,7.131,7.054,7.054,7.054,7.016,6.942,6.906,6.798,6.763,6.694,6.66,6.66,6.593,6.56,6.528,6.463,6.432,6.4,6.4,6.369,6.369,6.369,6.308,6.308,6.308,6.278,6.248,6.248,6.218,6.248,6.248,6.248,6.278,6.278,6.278,6.308,6.308,6.339,6.339,6.369,6.369,6.369,6.4,6.4,6.4,6.4,6.369,6.369,6.369,6.369,6.339,6.308,6.308,6.308,6.308,6.308,6.339,6.369,6.369,6.369,6.339,6.308,6.308,6.278,6.278,6.248,6.248,6.248,6.278,6.308,6.4,6.463,6.528,6.66,6.763,6.87,6.906,6.942,7.016,7.131,7.17,7.209,7.249,7.289,7.371,7.371,7.455,7.455,7.541,7.541,7.628,7.718,7.81,8.001,8.15,8.357,8.52,8.689,8.806,8.865,8.987,9.049,9.112,9.24,9.439,9.865,10.413,11.026,11.509,11.611,11.715,11.715,11.715,11.715,11.715,11.715,11.928,12.037,12.616,13.811,15.081,15.808,16.199,16.609,17.04,17.04,17.04,17.04,17.04,17.04,17.264,17.494,17.731,17.974,17.974,18.223,18.48,19.016,19.016,19.016,19.016,19.295,19.016,18.48,18.223,17.974,17.494,17.264,17.264,17.04,17.04,17.04,17.04,17.04,17.04,17.04,17.264,17.494,17.494,17.731,17.731,17.974,18.223,18.48,19.016,19.295,20.186,20.186,21.163,21.163,21.163,21.163,21.163,21.163,20.827,20.186,19.88,19.295,19.016,18.48,18.223,17.974,17.974,17.494,17.264,17.264,17.04,17.04,17.04,17.04,17.04,17.04,17.04,17.04,17.264,17.731,17.974,19.016,19.295,20.827,21.51,22.239,22.239,23.43,23.43,23.856,23.43,23.43,23.43,23.43,23.43,23.43,23.43,23.43,23.43,23.43,23.43,23.43,22.622,22.622,22.622,22.622,22.239,22.239,22.239,21.51,21.51,21.51,21.163,20.827,20.186,19.295,19.016,18.223,17.974,17.494,17.264,17.04,17.04,17.04,17.04,16.822,16.822,16.822,16.822,16.822,16.822,16.609,16.401,16.401,16.199,16.199,15.808,15.257,14.579,13.958,13.121,12.496,12.037,11.821,11.611,11.311,10.934,10.497,10.171,9.648,9.175,8.806,8.099,0,7.541,7.371,7.17,6.906,6.798,6.593,6.528,6.432,6.4,6.369,6.308,6.308,6.308,6.278,6.278,6.248,6.248,6.218,6.189,6.16,6.131,6.131,6.103,6.103,6.131,6.16,6.218,6.218,6.248,6.278,6.308,6.339,6.369,6.369,6.4,6.432,6.463,6.495,6.56,6.56,6.56,6.528,6.56,6.528,6.463,6.432,6.4,6.369,6.369,6.339,6.308,6.308,6.308,6.308,6.308,6.278,6.248,6.218,0,0
0,0,0,0,0,0,0,0,0,0,2.462,0,0,0,2.494,2.509,2.518,2.528,2.538,2.553,2.558,2.588,2.603,2.593,0,0,0,0,0,0,0,0,2.076,2.07,2.083,2.089,2.096,2.096,2.099,2.103,2.103,2.103,2.109,2.109,2.113,2.12,2.127,2.133,2.151,2.165,2.176,2.19,2.201,2.209,2.213,2.216,2.22,2.224,2.224,2.228,2.228,2.235,2.243,2.251,2.262,2.282,2.298,2.314,2.326,2.335,2.339,2.343,2.347,2.351,2.356,2.36,2.364,2.373,2.381,2.394,2.407,2.421,2.439,2.452,2.462,2.466,2.476,2.476,2.476,2.48,2.485,2.49,2.494,2.499,2.499,2.514,2.523,2.543,2.558,2.573,2.588,2.609,2.619,2.629,2.635,2.64,2.645,2.645,2.651,2.656,2.656,2.661,2.661,2.667,2.672,2.683,2.694,2.705,2.728,2.745,2.762,2.78,2.798,2.81,2.816,2.816,2.822,2.822,2.828,2.828,2.834,2.834,2.834,2.834,2.828,2.828,2.822,2.822,2.816,2.816,2.816,2.81,2.81,2.81,2.81,2.816,2.822,2.828,2.834,2.846,2.859,2.877,2.916,2.948,2.989,3.009,3.023,3.03,3.037,3.044,3.051,3.058,3.066,3.066,3.073,3.08,3.087,3.095,3.095,3.102,3.117,3.124,3.162,3.192,3.224,3.248,3.264,3.272,3.28,3.28,3.28,3.28,3.28,3.28,3.272,3.28,3.288,3.305,3.33,3.356,3.399,3.426,3.462,3.471,3.49,7.016,7.054,7.016,7.016,6.942,6.906,6.906,6.906,6.87,6.763,6.694,6.66,6.66,6.593,6.593,6.56,6.528,6.495,6.463,6.432,6.432,6.4,6.4,6.369,6.369,6.308,6.308,6.278,6.278,6.248,6.248,6.248,6.248,6.248,6.248,6.278,6.278,6.278,6.308,6.339,6.369,6.369,6.369,6.369,6.4,6.4,6.4,6.4,6.4,6.4,6.4,6.4,6.369,6.369,6.339,6.339,6.308,6.308,6.339,6.369,6.369,6.369,6.369,6.369,6.308,6.278,6.278,6.248,6.248,6.248,6.278,6.308,6.369,6.4,6.495,6.56,6.694,6.763,6.87,6.906,6.942,7.016,7.131,7.17,7.209,7.249,7.33,7.371,7.413,7.455,7.498,7.541,7.541,7.628,7.764,7.81,8.001,8.252,8.465,8.52,8.689,8.806,8.926,8.987,9.049,9.112,9.24,9.508,9.94,10.497,11.026,11.509,11.715,11.715,11.715,11.715,11.715,11.715,11.611,11.821,12.037,12.616,13.811,15.081,16.001,16.401,16.822,17.04,17.04,17.264,17.264,17.264,17.494,17.494,17.494,17.731,17.974,18.223,18.48,18.48,19.016,19.016,19.295,19.295,19.295,19.295,19.016,18.48,18.223,17.974,17.731,17.731,17.494,17.264,17.264,17.264,17.264,17.494,17.731,17.731,17.974,17.974,18.223,18.223,18.48,19.016,19.016,19.88,20.186,20.186,21.163,21.163,21.51,21.51,21.51,21.51,21.163,21.163,20.827,20.186,19.88,19.88,19.295,19.016,19.016,18.48,18.223,17.974,17.974,17.731,17.731,17.494,17.494,17.264,17.264,17.264,17.494,17.494,17.974,18.223,19.016,19.88,20.827,21.51,22.239,22.622,23.43,23.43,23.856,23.856,24.298,24.298,23.856,23.856,23.856,23.856,23.856,23.856,23.856,23.856,23.856,23.856,23.43,23.856,23.856,23.43,23.43,22.622,22.622,22.239,22.239,21.51,21.163,20.186,19.295,19.016,18.223,17.974,17.494,17.264,17.04,17.04,17.04,17.04,17.04,16.822,16.822,16.822,16.822,16.822,16.822,16.609,16.401,16.401,16.199,16.001,15.436,14.91,14.108,13.389,12.616,12.262,11.928,11.715,11.409,11.026,10.667,0,9.719,9.112,8.689,7.952,0,7.498,7.33,7.054,6.798,6.66,6.56,6.463,6.4,6.369,6.369,6.308,6.308,6.308,6.308,6.278,6.278,6.248,6.248,6.218,6.189,6.16,6.16,6.131,6.131,6.131,6.16,6.189,6.218,6.248,6.248,6.278,6.308,6.339,6.369,6.4,6.4,6.432,6.495,6.528,6.528,6.495,6.495,6.495,6.463,6.4,6.4,6.369,6.339,6.308,6.278,6.278,6.278,6.278,6.278,6.278,6.248,6.189,6.131,5.991,5.755
0,0,0,0,0,0,0,0,0,0,0,0,0,0,0,0,2.494,2.499,2.509,2.518,0,0,0,0,0,0,0,0,0,2.009,0,2.06,2.076,2.076,2.083,2.089,2.093,2.096,2.099,2.099,2.103,2.103,2.106,2.109,2.109,2.113,2.12,2.13,2.144,2.154,2.176,2.19,2.201,2.209,2.213,2.216,2.224,2.224,2.228,2.228,2.235,2.243,2.247,2.258,2.27,2.282,2.298,2.314,2.326,2.335,2.339,2.343,2.347,2.351,2.356,2.356,2.364,2.368,2.381,2.394,2.407,2.421,2.434,2.448,2.457,2.466,2.471,2.476,2.476,2.48,2.485,2.485,2.494,2.494,2.499,2.514,2.528,2.543,2.558,2.573,2.593,2.609,2.619,2.629,2.635,2.64,2.645,2.645,2.651,2.656,2.656,2.661,2.661,2.661,2.672,2.678,2.689,2.705,2.722,2.739,2.762,2.78,2.792,2.804,2.816,2.816,2.822,2.822,2.828,2.828,2.828,2.828,2.828,2.828,2.822,2.816,2.816,2.81,2.798,2.792,2.792,2.786,2.792,2.792,2.804,2.81,2.816,2.822,2.834,2.846,2.859,2.877,2.916,2.948,2.989,3.009,3.023,3.03,3.037,3.044,3.051,3.058,3.058,3.066,3.066,3.073,3.08,3.087,3.087,3.095,3.102,3.124,3.146,3.192,3.216,3.248,3.264,3.272,3.28,3.28,3.28,3.28,3.28,3.272,3.272,3.28,3.288,3.305,3.322,3.347,3.382,3.408,3.435,3.444,3.471,6.87,6.906,6.87,6.798,6.763,6.763,6.763,6.763,6.694,6.66,6.593,6.56,6.56,6.56,6.528,6.56,6.528,6.463,6.432,6.463,6.432,6.432,6.4,6.4,6.369,6.339,6.308,6.308,6.278,6.278,6.248,6.248,6.248,6.248,6.278,6.278,6.308,6.308,6.339,6.369,6.369,6.369,6.4,6.4,6.4,6.432,6.432,6.432,6.432,6.432,6.4,6.4,6.369,6.369,6.369,6.369,6.339,6.339,6.339,6.369,6.369,6.369,6.369,6.339,6.308,6.278,6.278,6.248,6.248,6.278,6.278,6.308,6.369,6.4,6.495,6.56,6.763,6.798,6.87,6.906,6.942,7.016,7.054,7.17,7.209,7.249,7.33,7.371,7.413,7.455,7.541,7.541,7.584,7.673,7.764,7.857,8.099,8.252,8.357,8.632,8.747,8.865,8.926,8.987,9.112,9.175,9.306,9.508,9.94,10.497,11.026,11.509,11.715,11.715,11.715,11.715,11.715,11.715,11.611,11.821,12.037,12.496,13.811,14.91,16.001,16.401,17.04,17.494,17.494,17.731,17.731,17.731,17.731,17.731,17.731,17.974,18.223,18.48,18.48,19.016,19.016,19.295,19.88,19.88,20.186,19.88,19.88,19.88,19.016,19.016,18.48,18.223,17.974,17.974,17.731,17.731,17.974,17.974,18.223,18.223,18.223,18.48,18.48,19.016,19.295,19.295,19.88,20.186,20.827,21.163,21.163,21.51,21.51,22.239,22.239,21.51,21.51,21.163,21.163,21.163,20.827,20.186,19.88,19.88,19.295,19.295,19.016,18.48,18.223,18.223,18.223,17.974,17.974,17.731,17.731,17.731,17.974,17.974,18.223,18.48,19.295,20.186,21.163,22.239,22.239,22.622,23.43,23.856,23.856,24.298,24.298,24.298,24.298,24.756,24.298,24.298,24.756,24.756,24.756,24.756,24.756,24.756,24.298,24.298,24.298,24.298,23.856,23.43,23.43,22.622,22.622,22.239,21.51,20.827,19.88,19.016,18.223,17.974,17.494,17.264,17.04,17.04,17.04,16.822,17.04,16.822,16.822,16.822,16.822,16.822,16.822,16.609,16.609,16.401,16.199,16.001,15.62,15.081,14.418,13.527,12.991,12.378,12.037,11.715,11.509,11.026,10.497,0,9.719,9.112,8.465,0,7.584,7.413,7.209,6.906,6.66,6.593,6.495,6.432,6.4,6.369,6.369,6.308,6.308,6.308,6.308,6.278,6.248,6.248,6.218,6.218,6.189,6.16,6.131,6.131,6.131,6.131,6.16,6.189,6.189,6.218,6.248,6.278,6.308,6.308,6.339,6.369,6.4,6.4,6.432,6.463,6.463,6.463,6.463,6.432,6.4,6.369,6.339,6.308,6.278,6.248,6.248,6.218,6.218,6.189,6.218,6.218,6.131,6.074,5.991,5.806,5.607
0,0,0,0,0,0,0,0,0,0,0,0,0,0,0,0,2.48,2.485,0,2.499,0,0,0,0,0,0,0,0,0,2.028,2.047,2.057,2.066,2.076,2.083,2.089,2.096,2.096,2.099,2.099,2.103,2.103,2.103,2.106,2.109,2.113,2.12,2.127,2.14,2.154,2.176,2.19,2.201,2.209,2.216,2.22,2.224,2.228,2.231,2.235,2.239,2.247,2.251,2.262,2.274,2.286,2.302,2.314,2.326,2.335,2.339,2.343,2.347,2.351,2.351,2.356,2.36,2.368,2.377,2.39,2.403,2.416,2.425,2.448,2.457,2.462,2.471,2.476,2.476,2.48,2.485,2.485,2.494,2.494,2.499,2.514,2.523,2.543,2.558,2.573,2.588,2.609,2.619,2.624,2.635,2.64,2.64,2.645,2.645,2.651,2.656,2.656,2.661,2.661,2.667,2.678,2.689,2.705,2.722,2.739,2.762,2.78,2.792,2.804,2.816,2.816,2.822,2.822,2.822,2.828,2.828,2.822,2.822,2.816,2.816,2.804,2.798,2.786,2.78,2.768,2.768,2.762,2.768,2.78,2.798,2.804,2.816,2.822,2.834,2.846,2.865,2.884,2.916,2.948,2.989,3.009,3.023,3.03,3.037,3.037,3.051,3.051,3.058,3.058,3.058,3.066,3.073,3.08,3.087,3.095,3.102,3.124,3.146,3.192,3.216,3.248,3.264,3.272,3.272,3.28,3.28,3.28,3.28,3.272,3.272,3.272,3.288,3.297,3.313,3.339,3.373,3.399,3.426,3.435,3.444,6.694,6.763,6.763,6.66,6.66,6.593,6.593,6.593,6.593,6.56,6.528,6.495,6.495,6.495,6.528,6.528,6.495,6.495,6.463,6.463,6.463,6.463,6.432,6.4,6.369,6.369,6.308,6.308,6.278,6.278,6.278,6.248,6.248,6.278,6.278,6.308,6.308,6.308,6.369,6.369,6.369,6.4,6.4,6.4,6.432,6.432,6.463,6.463,6.432,6.432,6.432,6.432,6.4,6.4,6.369,6.369,6.339,6.339,6.339,6.339,6.369,6.369,6.369,6.339,6.308,6.278,6.278,6.248,6.248,6.278,6.278,6.308,6.369,6.432,6.528,6.593,6.763,6.798,6.87,6.906,6.942,7.016,7.054,7.17,7.209,7.289,7.33,7.371,7.413,7.455,7.541,7.584,7.584,7.718,7.81,7.952,8.099,8.304,8.357,8.632,8.689,8.865,8.987,9.049,9.112,9.175,9.306,9.508,9.94,10.497,11.026,11.509,11.715,11.715,11.715,11.715,11.715,11.715,11.611,11.821,12.037,12.616,13.811,15.081,16.001,16.401,17.04,17.494,17.731,17.731,17.731,17.974,17.974,18.223,17.974,18.223,18.48,19.016,19.016,19.016,19.295,19.88,19.88,20.186,20.827,20.827,20.827,20.186,19.88,19.295,19.016,19.016,18.48,18.223,17.974,18.223,18.223,18.48,18.48,19.016,19.016,19.295,19.295,19.88,20.186,20.186,20.186,20.827,21.163,21.51,21.51,22.239,22.239,22.239,22.239,22.239,22.239,22.239,21.51,21.51,21.163,21.163,20.827,20.827,20.186,20.186,19.88,19.88,19.295,19.295,19.016,18.48,18.48,18.223,18.223,18.223,18.48,18.223,18.48,19.016,19.295,20.186,21.51,22.239,22.622,23.43,23.856,23.856,24.298,24.298,24.756,24.756,24.756,24.756,24.756,25.232,25.232,25.232,25.232,25.232,25.232,24.756,24.756,24.756,24.756,24.298,24.298,23.856,23.856,23.43,23.43,22.622,21.51,20.827,19.88,19.016,18.223,17.731,17.264,17.04,17.04,16.822,17.04,16.822,17.04,17.04,17.04,16.822,16.822,16.822,16.822,16.822,16.609,16.401,16.199,16.001,15.808,15.257,14.418,13.811,12.991,12.378,12.037,11.821,11.509,10.934,10.413,0,9.577,9.049,8.304,0,7.541,7.371,7.016,6.763,6.56,6.495,6.432,6.4,6.4,6.369,6.339,6.308,6.308,6.308,6.308,6.278,6.248,6.248,6.218,6.218,6.189,6.16,6.131,6.16,6.131,6.16,6.16,6.189,6.189,6.218,6.218,6.248,6.278,6.308,6.308,6.369,6.369,6.4,6.4,6.4,6.4,6.4,6.4,6.4,6.369,6.308,6.278,6.278,6.248,6.189,6.16,6.131,6.103,6.103,6.131,6.103,6.019,5.91,5.806,5.631,5.513
0,0,0,0,0,0,0,0,0,2.403,2.416,2.425,2.425,2.439,2.462,2.471,2.476,2.48,2.485,2.485,2.494,2.504,0,0,0,0,0,0,0,2.034,2.047,2.057,2.07,2.076,2.086,2.093,2.096,2.096,2.099,2.103,2.103,2.103,2.106,2.109,2.113,2.116,2.123,2.13,2.144,2.162,2.176,2.19,2.205,2.213,2.216,2.224,2.228,2.231,2.239,2.243,2.251,2.258,2.262,2.274,2.286,2.29,2.31,2.318,2.326,2.335,2.339,2.343,2.343,2.351,2.351,2.356,2.36,2.364,2.373,2.381,2.394,2.407,2.421,2.434,2.448,2.457,2.466,2.471,2.476,2.476,2.48,2.485,2.49,2.494,2.499,2.509,2.523,2.538,2.553,2.568,2.588,2.603,2.614,2.624,2.635,2.635,2.64,2.64,2.645,2.645,2.651,2.656,2.661,2.661,2.667,2.678,2.689,2.705,2.722,2.739,2.751,2.78,2.792,2.804,2.81,2.816,2.816,2.822,2.822,2.822,2.822,2.816,2.816,2.804,2.798,2.786,2.768,2.762,2.751,2.739,2.745,2.745,2.751,2.768,2.786,2.804,2.816,2.822,2.84,2.852,2.871,2.884,2.922,2.948,2.989,3.009,3.023,3.03,3.037,3.037,3.051,3.051,3.051,3.058,3.058,3.058,3.066,3.073,3.08,3.087,3.102,3.124,3.146,3.192,3.224,3.256,3.264,3.272,3.272,3.28,3.28,3.28,3.28,3.272,3.272,3.28,3.28,3.297,3.305,3.33,3.356,3.382,3.399,3.426,3.435,0,6.56,6.56,6.528,6.528,6.495,6.495,6.528,6.528,6.495,6.463,6.463,6.463,6.463,6.495,6.528,6.528,6.495,6.463,6.463,6.463,6.463,6.432,6.4,6.4,6.369,6.369,6.339,6.308,6.308,6.278,6.278,6.278,6.278,6.308,6.339,6.339,6.339,6.369,6.4,6.4,6.4,6.432,6.432,6.463,6.463,6.495,6.495,6.463,6.463,6.432,6.432,6.432,6.4,6.369,6.369,6.339,6.339,6.339,6.339,6.339,6.339,6.339,6.308,6.308,6.278,6.278,6.278,6.278,6.278,6.308,6.339,6.4,6.432,6.528,6.593,6.694,6.798,6.87,6.906,6.942,7.016,7.131,7.17,7.249,7.289,7.33,7.371,7.413,7.498,7.541,7.584,7.584,7.718,7.81,7.952,8.15,8.304,8.357,8.632,8.747,8.865,8.987,9.049,9.112,9.175,9.306,9.508,9.94,10.413,11.026,11.509,11.611,11.715,11.715,11.715,11.715,11.715,11.611,11.821,12.037,12.739,13.811,14.91,16.001,16.401,17.04,17.494,17.731,17.731,17.731,17.731,17.974,17.974,17.974,18.223,18.223,18.48,19.016,19.295,19.295,19.88,20.186,20.186,20.827,21.163,21.163,21.163,20.827,20.186,19.88,19.88,19.295,19.016,18.48,18.48,19.016,19.016,19.295,19.295,19.88,19.88,20.186,20.827,21.163,21.163,21.163,21.51,21.51,22.239,22.239,22.622,22.622,22.622,22.622,22.622,22.622,22.622,22.622,22.622,22.239,22.239,21.51,21.51,21.163,21.163,21.163,20.827,20.186,20.186,19.88,19.88,19.016,19.016,18.48,18.48,18.48,18.48,19.016,19.295,19.88,20.827,21.51,22.239,22.622,23.43,23.856,24.298,24.298,24.756,24.756,24.756,25.232,25.232,25.232,25.232,25.232,25.727,25.727,25.727,25.727,25.232,25.232,25.232,25.232,24.756,24.756,24.298,24.298,23.856,23.43,22.622,21.51,20.827,19.88,19.016,18.223,17.731,17.264,17.04,17.04,16.822,16.822,16.822,16.822,17.04,17.04,17.04,16.822,16.822,16.822,16.822,16.609,16.401,16.401,16.199,15.808,15.257,14.579,13.811,12.991,12.262,11.928,11.715,11.409,10.755,10.331,0,9.372,8.987,8.252,0,7.498,7.33,6.906,6.66,6.528,6.463,6.4,6.4,6.369,6.369,6.339,6.308,6.308,6.308,6.308,6.278,6.248,6.248,6.218,6.218,6.218,6.189,6.189,6.189,6.16,6.16,6.16,6.189,6.189,6.189,6.218,6.248,6.248,6.278,6.308,6.308,6.339,6.339,6.369,6.369,6.369,6.369,6.339,6.308,6.308,6.278,6.248,6.218,6.16,6.103,6.074,6.019,5.991,6.019,6.019,5.991,5.91,5.806,5.68,5.56,5.467
0,0,0,0,0,0,0,0,0,2.394,2.407,2.416,2.421,2.434,2.448,2.457,2.462,2.471,0,0,0,0,0,0,0,0,0,0,0,0,2.053,0,2.07,2.079,2.086,2.093,2.096,2.099,2.103,2.103,2.106,2.109,2.109,2.113,2.116,2.12,2.13,2.14,2.154,2.169,2.18,2.198,2.209,2.213,2.22,2.228,2.235,2.239,2.247,2.251,2.262,2.27,2.282,2.286,2.29,2.302,2.31,2.318,2.326,2.335,2.339,2.343,2.343,2.347,2.351,2.351,2.356,2.36,2.368,2.377,2.39,2.403,2.416,2.425,2.439,2.452,2.462,2.466,2.471,2.476,2.48,2.485,2.485,2.494,2.499,2.504,2.514,2.528,2.543,2.558,2.573,2.588,2.603,2.619,2.629,2.635,2.635,2.64,2.64,2.645,2.651,2.656,2.661,2.661,2.667,2.678,2.689,2.694,2.722,2.739,2.751,2.768,2.786,2.798,2.804,2.81,2.816,2.816,2.816,2.81,2.81,2.804,2.798,2.786,2.768,2.751,2.745,2.728,2.722,2.711,2.722,2.722,2.745,2.762,2.786,2.804,2.816,2.828,2.84,2.859,2.884,2.903,2.935,2.962,2.989,3.009,3.023,3.023,3.03,3.037,3.044,3.051,3.051,3.058,3.058,3.058,3.066,3.073,3.08,3.087,3.095,3.117,3.146,3.192,3.224,3.256,3.264,3.272,3.272,3.28,3.28,3.28,3.28,3.272,3.272,3.28,3.28,3.297,3.305,3.33,3.347,3.373,3.399,3.408,3.426,0,0,6.4,6.4,6.4,6.4,6.4,6.432,6.432,6.432,6.432,6.432,6.432,6.463,6.495,6.528,6.528,6.495,6.463,6.495,6.463,6.463,6.432,6.432,6.4,6.369,6.369,6.369,6.339,6.308,6.308,6.308,6.308,6.308,6.339,6.339,6.369,6.369,6.369,6.4,6.4,6.432,6.463,6.463,6.463,6.495,6.495,6.495,6.495,6.463,6.432,6.432,6.432,6.4,6.369,6.369,6.369,6.339,6.339,6.308,6.308,6.339,6.339,6.339,6.308,6.278,6.278,6.278,6.278,6.308,6.339,6.369,6.4,6.463,6.56,6.593,6.763,6.798,6.87,6.906,6.942,7.016,7.131,7.17,7.249,7.289,7.33,7.371,7.413,7.498,7.541,7.584,7.628,7.718,7.81,7.952,8.099,8.252,8.357,8.632,8.689,8.865,8.987,9.049,9.112,9.175,9.306,9.508,9.865,10.331,10.934,11.311,11.509,11.611,11.611,11.715,11.715,11.715,11.715,11.928,12.149,12.739,13.958,14.91,16.001,16.401,16.822,17.264,17.494,17.494,17.731,17.731,17.731,17.974,17.974,17.974,18.223,18.48,19.016,19.295,19.88,19.88,20.186,20.827,21.163,21.163,21.163,21.163,20.827,20.186,20.186,19.88,19.295,19.295,19.016,19.016,19.016,19.295,19.295,19.88,20.186,20.827,21.163,21.51,22.239,22.239,22.239,22.239,22.622,22.622,23.43,23.43,23.43,23.43,23.43,23.43,23.43,23.43,23.43,23.43,23.43,22.622,22.622,22.622,22.239,22.239,21.51,21.51,21.163,21.163,20.827,20.186,19.88,19.88,19.016,19.016,19.295,19.295,19.88,19.88,20.186,21.163,21.51,22.622,22.622,23.43,23.856,24.298,24.298,24.756,24.756,25.232,25.232,25.232,25.727,25.727,25.727,26.242,26.242,26.242,25.727,25.727,25.727,25.727,25.232,25.232,24.756,24.756,24.298,23.856,23.856,22.622,21.51,20.827,19.88,19.016,18.223,17.731,17.264,17.04,16.822,16.822,16.822,16.822,16.822,17.04,17.04,17.04,17.04,16.822,16.822,16.822,16.822,16.401,16.401,16.001,15.62,15.081,14.418,13.527,12.739,12.149,11.821,11.611,11.214,10.497,0,0,0,8.806,7.952,0,7.413,7.249,6.798,6.56,6.495,6.432,6.4,6.4,6.369,6.339,6.308,6.308,6.278,6.308,6.278,6.278,6.248,6.248,6.218,6.218,6.218,6.189,6.189,6.189,6.16,6.16,6.16,6.16,6.189,6.189,6.189,6.218,6.248,6.248,6.278,6.308,6.308,6.308,6.308,6.339,6.339,6.308,6.278,6.278,6.248,6.218,6.189,6.131,6.074,5.991,5.937,5.91,5.91,5.91,5.91,5.884,5.806,5.73,5.631,5.536,5.444
0,0,0,0,0,0,0,0,0,2.439,2.439,2.448,2.448,2.452,2.452,2.457,2.457,2.457,2.452,0,0,0,0,0,0,0,0,0,2.086,2.07,0,0,2.079,2.083,2.093,2.096,2.099,2.103,2.106,2.109,2.109,2.109,2.113,2.113,2.12,2.127,2.133,2.144,2.162,2.18,2.194,2.205,2.213,2.216,2.224,2.231,2.243,2.251,2.258,2.262,2.274,2.286,2.286,2.29,2.298,2.31,2.314,2.322,2.326,2.335,2.339,2.339,2.343,2.343,2.347,2.351,2.356,2.356,2.364,2.373,2.381,2.394,2.407,2.425,2.439,2.452,2.462,2.466,2.471,2.476,2.48,2.485,2.485,2.49,2.494,2.499,2.514,2.523,2.538,2.553,2.568,2.578,2.593,2.614,2.619,2.629,2.635,2.635,2.64,2.645,2.651,2.656,2.656,2.661,2.667,2.678,2.683,2.705,2.722,2.739,2.751,2.768,2.78,2.792,2.798,2.804,2.804,2.804,2.804,2.804,2.792,2.786,2.78,2.762,2.745,2.739,2.722,2.705,2.705,2.694,2.711,2.722,2.745,2.768,2.792,2.816,2.822,2.84,2.852,2.871,2.896,2.916,2.942,2.962,2.989,3.002,3.016,3.023,3.03,3.037,3.037,3.051,3.051,3.058,3.058,3.058,3.066,3.066,3.08,3.087,3.095,3.124,3.146,3.177,3.224,3.256,3.264,3.272,3.272,3.28,3.28,3.28,3.272,3.272,3.272,3.272,3.28,3.297,3.305,3.322,3.347,3.356,3.382,3.399,3.408,0,6.339,6.339,6.339,6.369,6.369,6.369,6.369,6.4,6.4,6.4,6.4,6.432,6.463,6.495,6.528,6.56,6.528,6.495,6.495,6.463,6.463,6.432,6.432,6.4,6.369,6.369,6.369,6.339,6.339,6.339,6.339,6.339,6.339,6.369,6.369,6.369,6.369,6.4,6.4,6.432,6.432,6.463,6.463,6.495,6.495,6.495,6.495,6.495,6.463,6.432,6.4,6.4,6.4,6.369,6.369,6.339,6.339,6.308,6.308,6.308,6.308,6.308,6.308,6.308,6.278,6.278,6.278,6.308,6.339,6.339,6.369,6.4,6.463,6.56,6.66,6.763,6.798,6.87,6.906,6.942,7.016,7.131,7.209,7.249,7.289,7.371,7.371,7.455,7.498,7.541,7.584,7.628,7.718,7.81,8.001,8.15,8.304,8.357,8.52,8.689,8.865,8.987,9.049,9.112,9.175,9.306,9.439,9.719,10.171,10.667,11.119,11.409,11.509,11.611,11.611,11.715,11.715,11.715,11.928,12.149,13.121,14.108,15.081,15.808,16.199,16.822,17.04,17.264,17.264,17.494,17.494,17.731,17.731,17.731,17.974,18.223,18.48,18.48,19.016,19.295,19.88,20.186,20.827,21.163,21.163,21.51,21.163,21.163,20.827,20.186,20.186,19.88,19.295,19.016,19.016,19.295,19.295,19.88,20.186,20.827,21.51,22.239,22.622,23.43,23.43,23.43,23.43,23.856,23.856,23.856,23.856,23.856,23.856,24.298,24.298,24.298,24.298,24.298,24.298,23.856,23.856,23.856,23.43,23.43,22.622,22.622,22.239,22.239,21.51,21.163,20.827,20.827,20.186,19.88,19.88,19.88,19.88,19.88,20.186,20.827,21.163,22.239,22.622,22.622,23.43,23.856,24.298,24.298,24.298,24.756,24.756,25.232,25.232,25.232,25.727,26.242,26.242,26.242,26.242,26.242,26.242,26.242,26.242,25.727,25.232,25.232,24.756,24.298,24.298,23.856,23.43,22.239,20.827,19.88,19.016,18.223,17.731,17.264,17.04,17.04,16.822,16.822,16.822,17.04,17.04,17.04,17.04,17.04,16.822,16.822,16.822,16.609,16.401,16.199,16.001,15.62,14.91,13.958,13.121,12.496,12.037,11.715,11.509,10.934,10.171,9.648,0,9.112,8.632,7.81,0,7.413,7.17,6.763,6.56,6.495,6.432,6.4,6.4,6.369,6.339,6.308,6.278,6.278,6.278,6.278,6.248,6.248,6.189,6.189,6.218,6.218,6.218,6.218,6.189,6.189,6.189,6.189,6.189,6.189,6.189,6.16,6.189,6.218,6.248,6.248,6.278,6.278,6.278,6.278,6.278,6.308,6.278,6.248,6.248,6.248,6.189,6.16,6.103,6.019,5.937,5.91,5.884,5.884,5.91,5.884,5.884,5.806,5.73,5.631,5.513,5.422
0,0,0,0,0,0,0,0,0,2.448,2.448,2.448,2.448,2.448,2.452,2.452,2.452,2.452,2.439,0,0,0,0,2.368,2.326,0,2.187,0,2.103,2.089,2.083,2.083,2.089,2.093,2.096,2.099,2.103,2.109,2.109,2.113,2.113,2.116,2.12,2.123,2.127,2.14,2.151,2.162,2.176,2.187,2.201,2.213,2.216,2.224,2.231,2.243,2.258,2.262,2.274,2.282,2.286,2.298,2.298,2.302,2.31,2.314,2.318,2.322,2.326,2.335,2.335,2.339,2.343,2.343,2.347,2.351,2.351,2.356,2.36,2.368,2.377,2.39,2.407,2.421,2.434,2.448,2.457,2.466,2.471,2.476,2.48,2.485,2.485,2.49,2.494,2.499,2.509,2.518,2.528,2.543,2.558,2.573,2.588,2.609,2.614,2.629,2.635,2.635,2.64,2.645,2.645,2.656,2.656,2.661,2.667,2.672,2.683,2.705,2.722,2.739,2.745,2.762,2.768,2.786,2.792,2.792,2.792,2.792,2.792,2.786,2.78,2.768,2.751,2.739,2.728,2.711,2.694,2.689,2.689,2.694,2.711,2.728,2.751,2.786,2.81,2.822,2.84,2.846,2.865,2.896,2.922,2.935,2.962,2.982,2.996,3.002,3.016,3.023,3.03,3.037,3.037,3.051,3.051,3.058,3.058,3.066,3.073,3.073,3.08,3.087,3.102,3.124,3.146,3.177,3.224,3.248,3.264,3.272,3.272,3.28,3.272,3.272,3.272,3.272,3.272,3.272,3.28,3.297,3.305,3.322,3.347,3.356,3.382,3.382,3.399,0,0,6.278,6.278,6.278,6.278,6.308,6.339,6.369,6.369,6.4,6.4,6.432,6.432,6.495,6.528,6.56,6.528,6.528,6.495,6.495,6.495,6.432,6.432,6.4,6.369,6.369,6.369,6.369,6.369,6.369,6.369,6.369,6.369,6.369,6.369,6.369,6.4,6.4,6.4,6.4,6.432,6.463,6.463,6.495,6.495,6.495,6.495,6.463,6.463,6.432,6.4,6.4,6.369,6.369,6.369,6.339,6.339,6.308,6.308,6.308,6.308,6.308,6.308,6.308,6.278,6.308,6.308,6.339,6.369,6.369,6.4,6.432,6.495,6.593,6.66,6.763,6.798,6.87,6.906,6.942,7.016,7.131,7.209,7.249,7.33,7.371,7.371,7.413,7.498,7.541,7.584,7.628,7.764,7.81,7.952,8.15,8.252,8.357,8.52,8.689,8.865,8.987,9.049,9.112,9.175,9.24,9.372,9.648,9.94,10.497,10.934,11.214,11.409,11.509,11.611,11.715,11.715,11.821,12.037,12.262,13.121,14.418,15.081,16.001,16.199,16.609,17.04,17.04,17.04,17.264,17.494,17.494,17.494,17.731,17.974,18.223,18.223,18.48,19.016,19.295,20.186,20.186,21.163,21.163,21.51,21.51,21.51,21.163,20.827,20.827,20.186,19.88,19.295,19.016,19.295,19.88,19.88,20.186,20.827,21.51,22.239,22.622,23.856,23.856,24.298,24.298,24.756,24.298,24.298,24.298,24.756,24.756,24.756,25.232,25.232,25.232,25.232,25.232,25.232,24.756,24.756,24.298,24.298,23.856,23.856,23.43,22.622,22.622,22.239,21.51,21.163,21.163,20.827,20.827,20.827,20.827,20.827,20.827,20.827,21.163,22.239,22.622,23.43,23.43,23.43,23.856,24.298,24.298,24.756,24.756,25.232,25.232,25.727,25.727,26.242,26.242,26.242,26.242,26.242,26.242,26.242,26.242,26.242,25.727,25.727,25.232,24.756,24.756,24.298,23.856,23.43,22.239,21.163,19.88,19.295,18.223,17.731,17.494,17.04,17.04,17.04,17.04,17.04,17.04,17.04,17.04,17.04,17.04,16.822,16.822,16.822,16.609,16.401,16.001,15.808,15.257,14.579,13.811,12.739,12.262,11.928,11.611,11.311,10.667,9.94,9.508,9.306,9.049,8.52,7.81,0,7.413,7.17,6.798,6.56,6.495,6.463,6.432,6.4,6.369,6.339,6.308,6.278,6.278,6.278,6.248,6.248,6.218,6.189,6.189,6.218,6.218,6.218,6.218,6.218,6.189,6.189,6.189,6.189,6.189,6.16,6.131,6.16,6.16,6.189,6.218,6.248,6.248,6.248,6.248,6.248,6.248,6.248,6.248,6.218,6.189,6.16,6.131,6.074,5.991,5.91,5.884,5.884,5.884,5.91,5.884,5.884,5.806,5.73,5.631,5.536,5.444
0,0,0,0,0,0,0,0,0,0,0,2.448,2.448,2.448,2.448,2.448,2.439,2.448,2.425,2.425,2.416,2.407,2.381,2.356,0,0,0,0,2.127,0,2.103,2.099,2.099,2.099,2.103,2.106,2.109,2.113,2.113,2.12,2.12,2.123,2.127,2.13,2.14,2.151,2.162,2.169,2.187,2.198,2.209,2.216,2.224,2.228,2.243,2.258,2.27,2.282,2.286,2.298,2.298,2.31,2.31,2.314,2.314,2.318,2.318,2.322,2.331,2.335,2.335,2.339,2.343,2.343,2.347,2.351,2.351,2.356,2.36,2.364,2.373,2.381,2.394,2.407,2.425,2.439,2.452,2.462,2.466,2.476,2.48,2.48,2.485,2.49,2.494,2.494,2.499,2.514,2.523,2.538,2.553,2.568,2.588,2.603,2.614,2.624,2.635,2.635,2.64,2.645,2.645,2.656,2.656,2.661,2.667,2.672,2.689,2.694,2.711,2.728,2.739,2.745,2.762,2.768,2.78,2.78,2.78,2.78,2.78,2.768,2.751,2.745,2.728,2.722,2.705,2.689,2.683,2.678,2.683,2.694,2.711,2.739,2.768,2.798,2.822,2.834,2.846,2.871,2.903,2.922,2.948,2.962,2.982,2.996,3.002,3.009,3.023,3.023,3.03,3.037,3.044,3.051,3.051,3.058,3.058,3.066,3.08,3.08,3.087,3.095,3.102,3.124,3.146,3.192,3.216,3.248,3.264,3.272,3.272,3.272,3.272,3.272,3.272,3.272,3.272,3.272,3.28,3.297,3.305,3.322,3.347,3.356,3.373,3.382,3.399,0,6.189,6.189,6.218,6.248,6.248,6.248,6.278,6.308,6.369,6.369,6.4,6.4,6.432,6.495,6.528,6.56,6.528,6.495,6.495,6.495,6.495,6.463,6.432,6.4,6.369,6.369,6.369,6.369,6.369,6.369,6.369,6.369,6.369,6.369,6.369,6.369,6.4,6.4,6.4,6.4,6.432,6.463,6.463,6.463,6.463,6.463,6.463,6.463,6.432,6.4,6.4,6.4,6.369,6.369,6.369,6.339,6.308,6.308,6.308,6.308,6.308,6.308,6.308,6.308,6.278,6.308,6.308,6.369,6.369,6.4,6.432,6.463,6.528,6.66,6.694,6.763,6.798,6.87,6.906,6.942,7.054,7.131,7.209,7.249,7.289,7.371,7.371,7.413,7.498,7.541,7.584,7.628,7.764,7.81,7.857,8.099,8.252,8.357,8.465,8.632,8.806,8.987,9.049,9.112,9.112,9.24,9.306,9.508,9.865,10.331,10.755,11.026,11.214,11.409,11.509,11.611,11.715,11.821,12.037,12.378,13.389,14.418,15.257,15.808,16.199,16.609,16.822,17.04,17.04,17.04,17.264,17.264,17.494,17.731,17.974,17.974,18.223,18.48,19.016,19.295,20.186,20.186,21.163,21.51,21.51,21.51,21.51,21.163,21.163,20.827,20.827,20.186,19.88,19.295,19.88,19.88,19.88,20.827,21.163,21.51,22.622,23.856,24.298,24.298,24.756,25.232,25.232,25.232,25.232,25.232,25.232,25.727,25.727,26.242,26.242,26.242,26.242,26.242,25.727,25.727,25.727,25.232,24.756,24.298,24.298,24.298,23.856,23.43,22.622,22.239,22.239,21.51,21.163,21.163,21.163,21.163,21.51,21.51,21.51,22.239,22.622,23.43,23.43,23.856,23.856,23.856,24.298,24.298,24.756,24.756,25.232,25.232,25.727,25.727,26.242,26.242,26.242,26.242,26.777,26.242,26.242,26.242,26.242,26.242,25.727,25.232,25.232,24.756,24.298,23.856,23.43,22.239,21.163,19.88,19.295,18.48,17.974,17.494,17.264,17.04,17.04,17.04,17.04,17.04,17.04,17.04,17.04,17.04,16.822,16.822,16.609,16.401,16.199,15.808,15.257,14.579,13.958,12.991,12.378,11.928,11.611,11.409,10.934,10.413,9.648,9.372,9.24,8.987,8.465,7.764,7.541,7.413,7.209,6.798,6.593,6.56,6.495,6.432,6.4,6.369,6.339,6.308,6.278,6.278,6.248,6.248,6.218,6.189,6.16,6.189,6.189,6.218,6.218,6.218,6.218,6.218,6.189,6.189,6.16,6.16,6.131,6.131,6.131,6.131,6.16,6.16,6.189,6.189,6.189,6.189,6.248,6.248,6.218,6.189,6.16,6.131,6.103,6.103,6.019,5.937,5.91,5.91,5.91,5.91,5.91,5.884,5.831,5.831,5.755,5.656,5.536,5.444
